# .PCD v0.7 - Point Cloud Data file format
VERSION 0.7
FIELDS x y z
SIZE 4 4 4
TYPE F F F
COUNT 1 1 1
WIDTH 1526
HEIGHT 1
VIEWPOINT 0 0 0 1 0 0 0
POINTS 1526
DATA ascii
2.716476 -1.8449227 1.0475965
2.7065692 -1.846101 1.0479701
2.7041698 -1.8519502 1.0480608
2.5337369 -1.8273544 1.0544881
2.5271285 -1.8298506 1.0547373
2.5184684 -1.8309414 1.0550641
2.501235 -1.8262399 1.0557139
2.4872203 -1.8236102 1.0562423
2.4771836 -1.8235919 1.0566208
2.4702933 -1.8256534 1.0568808
2.4666207 -1.8298684 1.0570195
2.4569111 -1.8299358 1.0573857
2.450093 -1.8319354 1.0576429
2.4372416 -1.8297396 1.0581275
2.4205487 -1.8248161 1.0587569
2.4134622 -1.8264742 1.0590243
2.4018035 -1.8249059 1.059464
2.3920979 -1.8246411 1.05983
2.3797324 -1.8224545 1.0602963
2.3642282 -1.8179859 1.0608809
2.3521485 -1.8158585 1.0613365
2.3447185 -1.8169712 1.0616168
2.3354683 -1.8167441 1.0619657
2.326726 -1.8168309 1.0622953
2.3141637 -1.8141229 1.0627691
2.3000317 -1.8102137 1.0633019
2.2954688 -1.8131607 1.0634742
2.2858663 -1.8124176 1.0638362
2.2814639 -1.8154185 1.0640024
2.2748899 -1.8168042 1.0642505
2.2630856 -1.8143079 1.0646956
2.2506218 -1.8112605 1.0651655
2.2427726 -1.8115637 1.0654616
2.2362182 -1.8127873 1.0657089
2.229902 -1.814153 1.0659471
2.220145 -1.812907 1.0663151
2.2094901 -1.810933 1.0667169
2.2002029 -1.8099328 1.0670671
2.1900275 -1.80821 1.0674508
2.1832979 -1.8090498 1.0677047
2.1756566 -1.8091578 1.0679928
2.1726179 -1.8127469 1.0681076
2.1663253 -1.81382 1.068345
2.1590834 -1.8141277 1.0686181
2.1451101 -1.8091891 1.069145
2.130677 -1.8038174 1.0696892
2.1217225 -1.8026347 1.0700269
2.1156757 -1.8036762 1.0702549
2.109395 -1.8045012 1.0704918
2.104398 -1.8063025 1.0706804
2.0994246 -1.8080951 1.070868
2.094887 -1.8102059 1.0710392
1.923977 0.54515958 1.0722154
1.9361697 0.54428959 1.0717226
1.9442843 0.54190207 1.0713947
1.9549587 0.54037416 1.0709634
1.9627454 0.53777623 1.0706487
1.9641476 0.53291619 1.0705922
1.9641519 0.52756619 1.0705922
1.9630687 0.52184403 1.0706362
1.9652493 0.51723599 1.0705482
1.9696206 0.51335382 1.0703716
1.9732791 0.50920963 1.0702239
1.9784222 0.50553763 1.0700161
2.2529707 0.52285087 1.0589191
2.2510684 0.51615 1.0589962
2.2711928 0.51591778 1.0581827
2.2930214 0.51607108 1.0573006
2.3198907 0.51755595 1.0562145
2.343776 0.51804376 1.0552491
2.3537838 0.51448405 1.0548447
2.3735991 0.51361156 1.0540439
2.4025562 0.51516223 1.0528734
2.4319105 0.51666403 1.0516869
2.4597137 0.51758492 1.0505632
2.5118313 0.52488708 1.0484564
2.5512562 0.52852964 1.046863
2.577626 0.52852106 1.0457971
2.5993638 0.52716208 1.0449185
2.6258233 0.52690172 1.0438491
2.6433012 0.52420652 1.0431428
2.6907835 0.52898729 1.0412236
2.7157178 0.52788115 1.0402158
2.736383 0.52558529 1.0393807
2.7485104 0.52109206 1.0388906
2.7589045 0.51611435 1.0384707
2.7813773 0.51396346 1.0375625
2.8084502 0.51277578 1.0364683
2.8267958 0.50940478 1.035727
2.863327 0.51012647 1.0342504
2.8958514 0.5097363 1.0329359
2.9264743 0.50874114 1.0316982
2.9579868 0.50777686 1.0304246
2.9968047 0.50824547 1.0288557
3.0386372 0.5091567 1.0271648
3.0836961 0.51053119 1.0253437
3.1257753 0.51102996 1.0236429
3.1489153 0.50734603 1.0227078
3.1631014 0.50169122 1.0221345
3.3854713 0.51061869 1.0131466
3.419873 0.50801635 1.0117564
3.4421406 0.5029248 1.0108565
3.4582951 0.49656901 1.0102038
3.4660292 0.48857406 1.0098915
3.4728262 0.48036686 1.009617
3.4728339 0.47090873 1.009617
3.4728413 0.46145067 1.009617
3.4728489 0.45199254 1.009617
3.4728563 0.44253448 1.009617
3.4865232 0.4353697 1.0090648
3.5002978 0.4281483 1.0085083
3.5107026 0.42030451 1.0080881
3.5176754 0.41185597 1.0078065
3.5407665 0.40589997 1.0068734
3.6330252 0.41048917 1.0031444
3.6695566 0.40613016 1.0016681
3.7071071 0.40172395 1.0001506
3.7484503 0.39766732 0.9984796
3.8101227 0.39630041 0.99598706
3.8596013 0.39288238 0.99398738
3.8883295 0.38633278 0.99282646
3.9022958 0.37763068 0.99226224
4.8473592 0.41299686 0.95406407
4.8298635 0.39781043 0.95477176
4.8178744 0.38332894 0.9552567
4.7985473 0.3681204 0.95603842
4.7374363 0.34861949 0.95850891
4.7761879 0.33969012 0.95694298
4.9090719 0.33994451 0.95157218
4.980329 0.33349234 0.94869232
5.0369339 0.32526967 0.94640476
5.0729742 0.31485423 0.94494849
5.1095343 0.30428877 0.94347119
5.1519666 0.29403031 0.94175643
5.2114687 0.28496557 0.9393518
5.3049145 0.2783173 0.93557519
5.3373718 0.26640207 0.93426371
5.3619795 0.25371909 0.93326956
6.5065804 0.26902029 0.88700724
6.5426092 0.25352278 0.88555151
6.5365925 0.23535046 0.88579535
6.5185833 0.21653661 0.88652378
6.5006733 0.1978263 0.88724828
6.4651318 0.17831817 0.88868541
6.4166803 0.15838328 0.89064437
6.3342781 0.13717315 0.89397544
6.3605318 0.12104204 0.89291495
6.4553804 0.10750428 0.88908184
6.4948044 0.091390058 0.8874889
6.5487919 0.075562835 0.88530737
6.5992951 0.059331074 0.88326675
6.7761521 0.046488255 0.87611896
6.8509722 0.030001372 0.87309551
6.9287524 0.013176784 0.86995238
6.9748421 -0.004731372 0.86809009
7.0043793 -0.023190141 0.86689687
7.0361595 -0.041775174 0.86561298
10.554263 -0.01640296 0.72341943
10.554286 -0.045143165 0.72341943
10.554309 -0.07388337 0.72341943
10.727654 -0.10184556 0.71641433
11.324745 -0.13000347 0.69228232
12.208473 -0.16168748 0.65656531
12.691179 -0.19670832 0.63705671
12.769548 -0.23176874 0.63389051
12.168654 -0.26105657 0.65817797
11.680102 -0.28840292 0.67792487
11.685627 -0.32028842 0.67770243
12.133049 -0.35984668 0.65962017
12.271019 -0.39564669 0.65404499
12.620399 -0.4370057 0.63992512
12.665501 -0.47251895 0.63810349
12.89581 -0.51349819 0.6287961
13.086183 -0.55449712 0.62110305
13.086211 -0.59013069 0.62110305
13.282288 -0.63289189 0.61317945
13.433252 -0.67495775 0.60707951
13.639947 -0.72017515 0.59872675
14.23438 -0.78378201 0.57470322
15.83215 -0.89803112 0.51012933
16.297836 -0.96441019 0.49130952
17.773905 -1.5221155 0.43166864
17.58592 -1.5554848 0.43926728
17.352409 -1.5840681 0.44870651
16.834696 -1.587118 0.46963108
18.125574 -2.0921118 0.41747367
18.86478 -2.222677 0.38760078
18.547705 -2.2383375 0.40041697
18.214348 -2.2503936 0.41389072
17.805077 -2.2516737 0.4304322
17.28367 -2.2371836 0.45150578
17.200682 -2.2739911 0.45486104
19.03307 -2.5520778 0.38080966
20.597145 -2.8055489 0.31760204
21.310284 -2.9555092 0.28878343
21.110998 -2.9867477 0.29683888
20.620089 -2.9769206 0.31668007
19.703684 -2.904928 0.35371649
19.275385 -2.8975203 0.37102687
18.865311 -2.8904281 0.38760102
18.095339 -2.8278427 0.41871917
17.733469 -2.8225696 0.43334472
17.385792 -2.817503 0.44739687
16.9699 -2.7998915 0.46420562
16.729797 -2.8079433 0.47391021
16.344353 -2.7912014 0.48948824
15.71337 -2.7320139 0.51498926
14.974173 -2.651314 0.54486287
14.351003 -2.5862865 0.57004762
14.074425 -2.5776489 0.58122599
13.854544 -2.5774384 0.59011316
13.739565 -2.5946968 0.59476078
13.352877 -2.562243 0.61038876
12.828542 -2.5024431 0.63157904
12.649373 -2.5040224 0.63882053
12.57731 -2.5248504 0.64173388
12.607141 -2.5648029 0.64052939
8.2105627 -2.1696725 0.81821525
8.1302805 -2.1720552 0.82146001
8.049118 -2.173779 0.82474053
7.8905406 -2.1553862 0.83114916
7.4982753 -2.0761015 0.84700102
7.0838823 -1.9889373 0.86374688
6.9783769 -1.980543 0.86801088
6.9075298 -1.9807606 0.87087429
6.9142776 -2.001369 0.87060231
6.9549646 -2.0311942 0.86895871
6.9961343 -2.0613723 0.86729574
6.8557148 -2.0789902 0.87297171
6.7140617 -2.0574076 0.8786962
6.5750413 -2.0358093 0.88431454
6.5280924 -2.040112 0.88621211
6.5144053 -2.05388 0.88676578
6.5204072 -2.0733812 0.88652378
6.5505247 -2.1000943 0.88530737
6.5748224 -2.1252229 0.88432616
6.5505528 -2.1357608 0.88530737
6.4931812 -2.1360416 0.88762623
6.2801647 -2.0879803 0.89623427
6.3170028 -2.1165411 0.8947463
6.605504 -2.2243321 0.88308924
6.6873527 -2.2682364 0.87978262
6.7565155 -2.308533 0.87698847
6.6927891 -2.3063893 0.87956411
6.6801996 -2.3205144 0.88007337
6.5550041 -2.2976766 0.88513267
6.1384416 -2.1779013 0.90196526
5.8223686 -2.0893292 0.91473722
5.6381736 -2.0433221 0.92218047
5.6038299 -2.0470407 0.92356861
5.6038423 -2.0622962 0.92356861
5.6394906 -2.0898094 0.92212874
5.639503 -2.1051619 0.92212874
5.6127458 -2.1111608 0.92321032
5.5833092 -2.1160707 0.92440027
5.5426106 -2.1168234 0.92604524
4.9268074 -1.9519356 0.95092911
4.9177113 -1.9619924 0.9512971
4.9240928 -1.9777443 0.95103973
4.9187069 -1.9891312 0.95125771
4.9580674 -2.0173414 0.94966775
4.9307742 -2.0204806 0.95077097
4.8967524 -2.0209007 0.95214611
4.8612928 -2.0205824 0.95357925
4.8329196 -2.0228167 0.9547261
4.7937441 -2.0206811 0.95630938
4.7424846 -2.0135839 0.95838094
4.6466508 -1.9885708 0.96225345
4.578126 -1.9739158 0.96502262
4.5479498 -1.9742706 0.96624231
4.5017877 -1.9680046 0.96810782
4.4790611 -1.9710156 0.96902645
4.4509716 -1.9717077 0.97016174
4.3989415 -1.9623833 0.97226441
4.317121 -1.9404212 0.97557068
4.2865753 -1.9394181 0.97680521
4.2637677 -1.9415001 0.97772712
4.2433763 -1.9444793 0.97855139
4.2031646 -1.9389116 0.98017645
4.1502528 -1.9276857 0.98231471
4.1435676 -1.9360977 0.98258513
4.1421709 -1.9467672 0.98264194
4.1035295 -1.9411721 0.98420352
4.0829601 -1.9433039 0.98503494
4.0389185 -1.9349506 0.98681474
4.0013971 -1.9292569 0.98833108
3.985991 -1.9332529 0.98895389
3.9618342 -1.9332262 0.98993021
3.9298673 -1.9295315 0.99122214
3.9119227 -1.9320503 0.99194753
3.8813598 -1.9286891 0.99318266
3.8602509 -1.9295197 0.99403584
3.8435299 -1.9322701 0.99471176
3.8146083 -1.9292388 0.9958806
3.80439 -1.9348243 0.99629378
3.7952404 -1.940859 0.99666375
3.7762041 -1.9421512 0.99743319
3.7268608 -1.9288741 0.99942708
3.6303442 -1.8926837 1.0033269
3.6151142 -1.8952096 1.0039425
3.6523399 -1.9231184 1.0024389
3.654139 -1.9339346 1.0023665
3.6573763 -1.9454664 1.002236
3.6237617 -1.9388243 1.0035944
3.578084 -1.9260119 1.0054402
3.5380747 -1.9157797 1.007057
3.5001833 -1.9063925 1.0085881
3.4756968 -1.9035622 1.0095778
3.4520307 -1.9010147 1.0105342
3.4145417 -1.891289 1.0120491
3.3940163 -1.8900565 1.0128787
3.3755701 -1.8897837 1.0136242
3.3643734 -1.8931669 1.0140768
3.35461 -1.8972353 1.0144715
3.3424268 -1.8999839 1.014964
3.3124158 -1.8932835 1.0161768
3.2906241 -1.8907677 1.0170574
3.2790239 -1.8935528 1.0175264
3.2459085 -1.8847756 1.0188645
3.230294 -1.8852193 1.0194956
3.2194133 -1.8881335 1.0199356
3.2034323 -1.888221 1.0205815
3.1861775 -1.8875271 1.0212789
3.1691082 -1.8868407 1.0219686
3.148025 -1.8838508 1.0228207
3.136898 -1.8862571 1.0232705
3.1286063 -1.8901793 1.0236058
3.1217308 -1.8948482 1.0238838
3.1107891 -1.8971958 1.0243261
3.0891273 -1.8934335 1.0252016
3.0715721 -1.8918823 1.0259111
2.9565842 -1.8588475 1.0305574
2.9435081 -1.8592979 1.031086
2.937017 -1.8635185 1.0313485
2.92733 -1.8658309 1.0317401
2.917707 -1.8681281 1.032129
2.9081471 -1.8704103 1.0325155
2.8915625 -1.8684655 1.0331857
2.8678622 -1.8621821 1.0341434
2.8520598 -1.8605069 1.0347822
2.8361073 -1.858655 1.0354269
2.8248231 -1.8595414 1.0358829
2.811399 -1.8590657 1.0364255
2.7943239 -1.8562874 1.0371156
2.7849302 -1.8581272 1.0374953
2.7675576 -1.8550007 1.0381973
2.747206 -1.8499362 1.0390197
2.7258046 -1.8441086 1.0398846
2.7135999 -1.8439052 1.0403777
2.7053294 -1.846102 1.0407121
2.7022445 -1.8515189 1.0408369
2.5271649 -1.8237714 1.0479124
2.5223794 -1.8274632 1.048106
2.5146384 -1.8291554 1.0484188
2.4992087 -1.8256505 1.0490423
2.4869523 -1.8241976 1.0495377
2.476913 -1.8241769 1.0499434
2.4700212 -1.8262376 1.050222
2.4646347 -1.8292859 1.0504398
2.4523907 -1.8276145 1.0509347
2.4427083 -1.8276354 1.051326
2.4302852 -1.8257138 1.051828
2.4136796 -1.8208293 1.0524991
2.4066296 -1.8224952 1.0527841
2.3966494 -1.8220786 1.0531874
2.3861783 -1.8212636 1.0536106
2.3754573 -1.8202159 1.0540439
2.3631451 -1.8179867 1.0545415
2.3537447 -1.8177539 1.0549214
2.3465228 -1.8190194 1.0552133
2.3323522 -1.8152843 1.0557859
2.3228326 -1.8148053 1.0561707
2.3100917 -1.8119569 1.0566854
2.2985528 -1.8099072 1.0571518
2.2944174 -1.8131615 1.057319
2.2848191 -1.8124185 1.057707
2.2804189 -1.8154193 1.0578849
2.2738478 -1.816805 1.0581505
2.262049 -1.8143088 1.0586274
2.251018 -1.8123151 1.0590731
2.2431624 -1.812615 1.0593907
2.2366028 -1.8138362 1.0596558
2.2302816 -1.8151999 1.0599114
2.2191279 -1.8129078 1.0603621
2.208478 -1.8109338 1.0607924
2.1991951 -1.8099337 1.0611676
2.1890242 -1.8082108 1.0615786
2.1809566 -1.808031 1.0619047
2.1710484 -1.8064033 1.0623051
2.1683054 -1.8102077 1.0624161
2.1623638 -1.8115396 1.0626563
2.1558001 -1.8123592 1.0629216
2.1418626 -1.8074372 1.0634847
2.1271935 -1.8018709 1.0640775
2.1188509 -1.8011552 1.0644146
2.1134472 -1.8026922 1.0646331
2.1096823 -1.8054856 1.0647852
2.1046815 -1.8072857 1.0649875
2.0997045 -1.809077 1.0651888
2.095576 -1.811514 1.0653557
1.9196218 0.54390359 1.0671995
1.9233768 0.54001808 1.0670376
1.9326923 0.53809178 1.066636
1.950119 0.53898036 1.0658845
1.9582828 0.5365268 1.0655326
1.9621598 0.53253734 1.0653656
1.962164 0.52719033 1.0653656
1.9610823 0.5214715 1.0654124
1.9643478 0.51723528 1.0652717
1.9687171 0.51335311 1.0650834
1.9727399 0.50933135 1.0649101
1.9775147 0.50553691 1.0647043
2.2562387 0.52413523 1.0526847
2.2557647 0.51784527 1.0527053
2.26773 0.51520681 1.0521895
2.2852135 0.51410675 1.0514356
2.3084688 0.51457322 1.0504328
2.339093 0.51701415 1.0491121
2.3500297 0.51372778 1.0486407
2.3752363 0.51437318 1.0475538
2.4120398 0.51809323 1.0459666
2.4317482 0.5169245 1.0451168
2.4557462 0.51681304 1.0440819
2.49402 0.52040803 1.0424314
2.5514848 0.52890098 1.0399531
2.5785863 0.52908432 1.0387845
2.6019871 0.52815545 1.0377754
2.6164463 0.52479303 1.0371521
2.6404016 0.52377498 1.0361191
2.6785142 0.52620053 1.0344756
2.7119005 0.52723777 1.0330359
2.7336216 0.52521205 1.0320992
2.7472498 0.5210911 1.0315118
2.7533545 0.51507831 1.0312487
2.7726443 0.5121814 1.030417
2.8042009 0.51207542 1.0290563
2.8270016 0.5097543 1.0280731
2.8606935 0.50982094 1.0266203
2.886888 0.50799501 1.0254908
2.9288158 0.50956953 1.0236828
2.9622791 0.50903249 1.0222398
3.0021362 0.50971806 1.0205212
3.0350757 0.50868511 1.0191007
3.0657759 0.50699282 1.017777
3.1180584 0.50969934 1.0155224
3.1486692 0.50759506 1.0142025
3.1710808 0.50363386 1.0132362
3.1966934 0.50020158 1.0121318
3.3774688 0.50935841 1.0043362
3.4205675 0.50845063 1.0024778
3.4418347 0.50316501 1.0015609
3.4571905 0.49665782 1.000899
3.4678295 0.48919752 1.0004405
3.4780467 0.48160276 1.0000001
3.4814706 0.47273716 0.99985284
3.4814782 0.4632512 0.99985284
3.4814856 0.45376524 0.99985284
3.4814932 0.44427928 0.99985284
3.491791 0.4365218 0.99940896
3.5056138 0.42929074 0.99881321
3.5125701 0.42086837 0.99851358
3.5160623 0.41185465 0.9983632
3.5381331 0.40574005 0.99741173
3.6264048 0.40972313 0.99360526
3.6613781 0.40514395 0.9920972
3.7023656 0.40126976 0.99032998
3.7626419 0.39999166 0.9877308
3.82393 0.39853033 0.98508805
3.8685086 0.39438358 0.98316586
3.8961592 0.38765785 0.98197377
3.9076736 0.37859884 0.98147756
4.8123956 0.38296506 0.94246453
4.7955079 0.36802801 0.94319326
4.7652764 0.35177812 0.94449747
4.8297577 0.34540793 0.94171721
4.9315286 0.34240982 0.93732876
4.9940767 0.33504763 0.93463188
5.0346241 0.32526782 0.93288374
5.0716844 0.3149474 0.93128598
5.1318402 0.30647939 0.92869228
5.1786246 0.29653078 0.92667526
5.2299418 0.28670573 0.92446268
5.3113098 0.27902851 0.92095423
5.3092647 0.26439738 0.92104292
5.328824 0.25140485 0.92019999
5.3541341 0.23872337 0.91910905
5.4315047 0.22954184 0.91577303
5.9980578 0.25278905 0.89134157
6.371109 0.26048189 0.87525487
6.4758854 0.2495884 0.8707372
6.521574 0.23463905 0.86876762
6.515594 0.21653423 0.86902601
6.503653 0.19814301 0.86954153
6.4798875 0.17921615 0.87056696
6.4295273 0.15914008 0.87273932
6.3438387 0.1377362 0.87643498
6.4052105 0.12306878 0.87378913
6.5031552 0.10952666 0.86956602
6.5518241 0.093618631 0.867468
6.5945015 0.077239007 0.86562812
6.6173806 0.059998631 0.86464214
6.7156053 0.044819444 0.86040717
6.7497206 0.027419999 0.85893667
6.8252411 0.010810271 0.8556807
6.8865061 -0.0065079033 0.85303938
6.9716592 -0.023727149 0.84936816
7.0441146 -0.041605696 0.84624439
10.549423 -0.016406819 0.6950897
10.549446 -0.045147017 0.6950897
10.603569 -0.073496908 0.69275689
10.954704 -0.10080781 0.67761648
11.572975 -0.12956001 0.65095663
12.273296 -0.16175941 0.62075889
12.672403 -0.19666524 0.6035502
12.633718 -0.2309407 0.60521948
11.906273 -0.25871617 0.63658881
11.580301 -0.28728753 0.65064609
11.591146 -0.31899333 0.65017962
12.060678 -0.35869509 0.62993407
12.223097 -0.39480406 0.6229316
12.56988 -0.43599254 0.60797918
12.659693 -0.47252357 0.60410774
12.93694 -0.51482958 0.59215379
13.177433 -0.55750936 0.58178496
13.177462 -0.59340787 0.58178496
13.376394 -0.63654125 0.57320821
13.478145 -0.67695868 0.56882191
13.686331 -0.72238171 0.55984628
14.293418 -0.78670788 0.53367019
15.754557 -0.89471233 0.47066736
16.290361 -0.96441615 0.44756544
17.963818 -1.5374191 0.37542307
17.843294 -1.5767151 0.38062155
18.241568 -2.1054435 0.36346567
18.749748 -2.21099 0.34155595
18.429052 -2.2259367 0.35538518
17.955696 -2.2215238 0.37579691
17.487545 -2.2151463 0.39598382
16.800869 -2.1798167 0.42559278
17.019848 -2.2526317 0.41615307
19.000757 -2.5491068 0.33074367
20.587702 -2.8055563 0.26232135
21.429272 -2.9724762 0.22603738
21.227673 -3.003742 0.23473155
20.610634 -2.9769282 0.26133811
19.616804 -2.8940461 0.30419075
19.162403 -2.8826761 0.32378447
18.756889 -2.8759356 0.34127104
18.087042 -2.8278491 0.37015378
17.725338 -2.822576 0.38575065
17.377819 -2.8175094 0.40073621
16.96212 -2.7998977 0.41866076
16.722126 -2.8079495 0.42901027
16.326111 -2.78947 0.44608629
15.545464 -2.705601 0.47974586
14.895436 -2.6393085 0.50777364
14.327857 -2.5834785 0.53224659
14.067972 -2.5776541 0.54345286
13.848191 -2.5774436 0.55293036
13.733266 -2.5947018 0.5578866
13.296695 -2.5532002 0.57671082
12.646231 -2.4700801 0.60475695
12.415847 -2.4616282 0.61469114
12.309636 -2.475379 0.6192714
12.338223 -2.5143821 0.61803997
12.058549 -2.5921516 0.63010252
12.031294 -2.6193979 0.63127899
8.2067804 -2.1473222 0.79618096
8.2067976 -2.1696756 0.79618096
8.1514654 -2.178257 0.79856718
8.0384789 -2.1720343 0.8034392
7.8009806 -2.1335363 0.81367898
7.4405098 -2.0621426 0.82922059
7.1397085 -2.004282 0.84218955
6.9790998 -1.9815751 0.84911454
6.9014835 -1.9799993 0.85246134
6.9426856 -2.0098307 0.85068578
6.9615264 -2.0338352 0.84987402
7.0021338 -2.0638916 0.84812409
7.0067616 -2.0842366 0.84792519
7.0067768 -2.1033211 0.84792519
6.9285474 -2.1003797 0.85129845
6.7755976 -2.0757749 0.85789299
6.6370564 -2.0544717 0.86386639
6.5613265 -2.0506082 0.86713177
6.5233989 -2.0573854 0.86876762
6.5174179 -2.0733836 0.86902601
6.5354519 -2.0965021 0.86824918
6.5414958 -2.1161146 0.86798912
6.4995389 -2.1212022 0.8697986
6.408092 -2.1109173 0.87374157
6.2124138 -2.0679548 0.88217807
6.2463045 -2.0954263 0.88071752
6.5496225 -2.2077296 0.86764193
6.657392 -2.2597158 0.86299646
6.753418 -2.3085353 0.85885745
6.6897206 -2.3063917 0.86160409
6.6771374 -2.3205168 0.86214721
6.5519991 -2.2976789 0.86754251
6.1271458 -2.1750998 0.88585865
5.8069916 -2.0850964 0.89966094
5.6304755 -2.0416062 0.90727109
5.6012611 -2.0470426 0.90853107
5.610136 -2.0653238 0.90814894
5.6369052 -2.0898113 0.90699548
5.6324401 -2.103611 0.90718848
5.6013098 -2.1080644 0.90853107
5.5690622 -2.1119554 0.90992171
5.5400696 -2.1168256 0.91117209
4.9245486 -1.9519374 0.93770856
4.9245596 -1.9653496 0.93770856
4.9177399 -1.9762253 0.938003
4.9301238 -1.9942473 0.9374696
4.9696865 -2.0225778 0.93576455
4.9402862 -2.0249505 0.9370324
4.9007893 -2.0233037 0.93873554
4.8623962 -2.0218668 0.940391
4.8339968 -2.0240951 0.94161576
4.7915463 -2.0206831 0.9434461
4.7403107 -2.0135858 0.94565523
4.6445208 -1.9885725 0.94978499
4.5760274 -1.9739175 0.95273805
4.5458651 -1.9742721 0.95403868
4.4997239 -1.9680063 0.9560281
4.4770079 -1.9710172 0.95700777
4.4433565 -1.9694265 0.95845878
4.3868227 -1.958221 0.96089631
4.3131423 -1.939593 0.96407276
4.2838702 -1.9391106 0.96533507
4.2618132 -1.9415016 0.96628624
4.2465105 -1.9466299 0.96694624
4.2187319 -1.9463625 0.96814412
4.1893101 -1.9452398 0.96941274
4.1978717 -1.9603372 0.96904415
4.1681395 -1.9588623 0.97032619
4.109798 -1.9447324 0.9728415
4.0730519 -1.9397742 0.97442585
4.0370669 -1.934952 0.97597742
4.0073113 -1.9327054 0.97726035
3.9886456 -1.9352602 0.97806537
3.9663463 -1.9360774 0.97902703
3.9355395 -1.9329188 0.98035532
3.9138288 -1.9337379 0.98129153
3.8795805 -1.9286906 0.98276818
3.8542874 -1.9275868 0.98385882
3.8376105 -1.9303427 0.98457807
3.8087645 -1.9273291 0.98582184
3.8026459 -1.9348258 0.98608595
3.7894468 -1.9389466 0.98665524
3.7733254 -1.9416078 0.98735052
3.7438815 -1.9378192 0.98862004
3.635057 -1.8957475 0.99331129
3.6233027 -1.8999661 0.99381828
3.6481616 -1.9219035 0.99274707
3.6444206 -1.9300071 0.99290866
3.6417549 -1.9386188 0.99302393
3.6073618 -1.9315467 0.99450672
3.5638635 -1.9197658 0.99638212
3.5306683 -1.9128925 0.99781322
3.4924257 -1.9033047 0.99946201
3.4690058 -1.9009901 1.0004718
3.4470942 -1.8993137 1.0014167
3.4096949 -1.8896159 1.003029
3.395709 -1.8917239 1.0036322
3.3804555 -1.8931019 1.00429
3.3601758 -1.8917916 1.0051644
3.3514123 -1.8963716 1.0055425
3.3393965 -1.8992003 1.0060607
3.30776 -1.8916327 1.0074246
3.2898419 -1.8911535 1.0081973
3.2495708 -1.8786852 1.0099334
3.2345562 -1.8795022 1.0105808
3.2214804 -1.8812796 1.0111448
3.2121079 -1.8849858 1.011549
3.199075 -1.8866541 1.0121111
3.1818595 -1.8859694 1.0128534
3.1599936 -1.882641 1.0137962
3.1410081 -1.8807806 1.0146148
3.1299255 -1.8831933 1.0150928
3.1244171 -1.8886473 1.0153306
3.117557 -1.8933156 1.0156264
3.1066391 -1.8956662 1.0160974
3.0850251 -1.8919181 1.0170293
3.0683048 -1.8908286 1.0177503
2.9622822 -1.8629271 1.0223211
2.9454172 -1.8611916 1.0230483
2.9356709 -1.8635195 1.0234686
2.9259882 -1.865832 1.0238862
2.9151711 -1.8674229 1.0243528
2.9056234 -1.8697066 1.0247645
2.8867083 -1.8663683 1.0255802
2.863076 -1.8601099 1.0265989
2.8461769 -1.8577623 1.0273275
2.8302824 -1.8559287 1.0280129
2.8212824 -1.8581825 1.028401
2.8078856 -1.8577136 1.0289787
2.7930431 -1.8562884 1.0296187
2.7814705 -1.8567885 1.0301178
2.7625947 -1.8527248 1.0309316
2.744884 -1.8492793 1.0316951
2.7260509 -1.8450397 1.0325071
2.7144322 -1.8452028 1.0330081
2.7068412 -1.8478291 1.0333356
2.7003205 -1.8510882 1.0336168
2.692127 -1.8532534 1.0339702
2.5170429 -1.8178327 1.0415189
2.5140743 -1.8227077 1.0416471
2.5081532 -1.8255938 1.0419025
2.4958031 -1.8241354 1.0424349
2.4849415 -1.823612 1.0429033
2.4757779 -1.8241779 1.0432985
2.4688892 -1.8262385 1.0435957
2.4600873 -1.8269572 1.0439752
2.4445086 -1.8229901 1.0446469
2.4320216 -1.8210624 1.0451853
2.422298 -1.8209732 1.0456045
2.4071929 -1.817104 1.0462557
2.4006419 -1.8190999 1.0465384
2.3923192 -1.8198235 1.0468972
2.3810816 -1.8184593 1.0473818
2.3719869 -1.8185413 1.047774
2.3628488 -1.8185433 1.0481679
2.3534465 -1.8183081 1.0485735
2.3454475 -1.8190203 1.0489184
2.3286595 -1.8134106 1.0496421
2.3187325 -1.8126293 1.0500702
2.3060303 -1.8097966 1.0506178
2.2970741 -1.8096008 1.0510039
2.2926247 -1.8126248 1.051196
2.2823026 -1.8113495 1.051641
2.2779098 -1.8143507 1.0518305
2.2713501 -1.8157386 1.0521134
2.2610123 -1.8143096 1.0525591
2.2504961 -1.8126926 1.0530126
2.2381256 -1.8096431 1.053546
2.2315588 -1.810846 1.0538292
2.2257621 -1.8125882 1.0540791
2.216032 -1.8113501 1.0544987
2.2054069 -1.8093855 1.0549568
2.1958537 -1.8081726 1.0553687
2.186672 -1.8071893 1.0557646
2.1772804 -1.8059962 1.0561695
2.1674013 -1.8043796 1.0565954
2.1633458 -1.8071706 1.0567704
2.157429 -1.8085084 1.0570257
2.150892 -1.8093357 1.0573075
2.1370115 -1.8044422 1.0579059
2.1227646 -1.7991883 1.0585201
2.1162553 -1.7998894 1.0588007
2.1112211 -1.8017091 1.0590179
2.1099699 -1.8064712 1.059072
2.1049657 -1.8082699 1.0592879
2.0999851 -1.8100601 1.0595027
2.0962665 -1.812824 1.0596632
1.9208219 0.54465544 1.0619476
1.9226134 0.54006016 1.0618657
1.9304017 0.53759098 1.0615088
1.9461643 0.53789818 1.0607865
1.9550689 0.53571391 1.0603784
1.9589349 0.53172779 1.0602014
1.9601781 0.52681482 1.0601447
1.9590982 0.52109933 1.0601943
1.9634464 0.51723444 1.0599952
1.9678137 0.51335239 1.0597951
1.9722008 0.50945294 1.0595943
1.9766073 0.5055362 1.0593925
2.2573934 0.52478898 1.046524
2.2604852 0.51954925 1.0463824
2.2691786 0.51593649 1.0459843
2.291059 0.51611054 1.0449815
2.3074095 0.51457238 1.0442321
2.3375788 0.51688743 1.0428495
2.3447309 0.51253438 1.042522
2.3641863 0.511585 1.0416304
2.4053199 0.51653695 1.0397451
2.424453 0.51522803 1.0388683
2.4468682 0.51470637 1.0378411
2.4795802 0.51683164 1.0363419
2.5492651 0.52862084 1.0331481
2.5784752 0.5293659 1.0318093
2.6046178 0.5291518 1.0306113
2.6260474 0.52757907 1.0296292
2.6390562 0.52373981 1.0290332
2.6660311 0.52335703 1.027797
2.6991484 0.52436185 1.0262793
2.7176931 0.52158499 1.0254295
2.7396183 0.51953304 1.0244248
2.7447796 0.51331043 1.0241885
2.7569926 0.5087446 1.023629
2.7877879 0.50850153 1.0222178
2.8182111 0.50800371 1.0208235
2.8541155 0.50860476 1.0191782
2.875747 0.50575554 1.0181868
2.9210348 0.50811815 1.0161114
2.9477789 0.5061065 1.0148858
2.9939957 0.50823009 1.0127678
3.0135291 0.5043081 1.0118726
3.0448029 0.50279677 1.0104395
3.1155837 0.50947738 1.0071955
3.1532276 0.50884819 1.0054704
3.1810107 0.50598049 1.0041972
3.2035744 0.50189912 1.0031635
3.2313197 0.49873498 1.0018921
3.2852678 0.5006088 0.99941957
3.3731637 0.50881898 0.99539125
3.4216397 0.5089581 0.99316972
3.4412103 0.50334501 0.99227297
3.459461 0.49737826 0.99143684
3.4730349 0.49044964 0.99081504
3.4867156 0.48346648 0.99018836
3.4936006 0.47519252 0.98987305
3.4936082 0.46566913 0.98987305
3.4936156 0.45614573 0.98987305
3.4936233 0.44662234 0.98987305
3.5005352 0.43825927 0.98955667
3.5109508 0.43043765 0.98907965
3.5144415 0.42143342 0.98891997
3.5179391 0.41241136 0.98876005
3.5410547 0.40645304 0.98770082
3.6205075 0.40906814 0.98405969
3.6575391 0.40481517 0.98236275
3.7012193 0.40135071 0.9803611
3.7917771 0.40450343 0.97621089
3.8506641 0.40261742 0.97351229
3.8902392 0.3976914 0.97169888
3.9126513 0.39018014 0.97067201
3.918843 0.38035157 0.97038865
4.787437 0.38044253 0.93058288
4.7638421 0.36484191 0.93166471
4.7695026 0.35245189 0.93140578
4.8388453 0.34656614 0.92822814
4.9476237 0.3442418 0.92324317
5.0038724 0.33622029 0.92066574
5.0394726 0.32594201 0.9190346
5.078702 0.31580251 0.91723722
5.1543617 0.30869129 0.91377014
5.205585 0.2990596 0.91142309
5.240799 0.28781128 0.90980971
5.2563615 0.27478299 0.90909702
5.2680974 0.26137102 0.90855968
5.2990646 0.24934447 0.90714091
5.3462939 0.23833033 0.90497696
5.4385371 0.23020577 0.90074986
5.7958765 0.23938844 0.88437349
6.2403731 0.25224105 0.8640027
6.4381857 0.24744219 0.85493755
6.5006409 0.23357809 0.85207582
6.5126047 0.21653184 0.85152823
6.5066385 0.19846031 0.85180229
6.4828405 0.17951497 0.85289359
6.4324112 0.15941837 0.8552053
6.361258 0.13865641 0.85846698
6.4528017 0.12522167 0.85427213
6.5586185 0.11185783 0.84942329
6.6099076 0.095888779 0.84707355
6.6408973 0.078940362 0.84565383
6.6143446 0.059996217 0.84687132
6.58742 0.041186094 0.84810597
6.6073241 0.023754328 0.84719443
6.6704268 0.007232368 0.84430325
6.8315215 -0.0075907558 0.8369211
6.9528322 -0.024012893 0.83136231
7.036222 -0.041680023 0.82754147
10.544583 -0.016410679 0.66675997
10.544606 -0.045150869 0.66675997
10.675347 -0.072947584 0.66076934
11.191797 -0.099724166 0.63710272
11.832573 -0.12909624 0.60773826
12.33887 -0.16183217 0.58453715
12.608633 -0.19645634 0.57217574
12.45042 -0.22980753 0.5794276
11.743034 -0.25727913 0.61184645
11.600253 -0.2875914 0.6183908
11.611141 -0.31936675 0.61789298
12.041488 -0.35846305 0.59817266
12.259765 -0.39565563 0.58817077
12.564114 -0.43599713 0.57422447
12.69924 -0.47368422 0.5680337
12.978372 -0.51617074 0.55524302
13.171388 -0.55751419 0.546399
13.171416 -0.59341264 0.546399
13.370258 -0.63654613 0.53728819
13.471962 -0.67696357 0.53262866
13.733077 -0.7246052 0.5206641
14.353004 -0.78966093 0.49225676
15.677651 -0.89142275 0.43155456
17.985958 -1.5397732 0.32579362
18.016483 -1.5912308 0.32439673
18.359163 -2.1189592 0.30871165
18.71475 -2.2080944 0.29241908
18.427443 -2.2267146 0.30558693
17.748402 -2.1985543 0.33670413
17.363279 -2.2014189 0.35435402
16.713947 -2.1702483 0.38411009
17.012039 -2.2526379 0.37045228
18.992041 -2.5491138 0.279724
20.578257 -2.8055639 0.20704067
21.549707 -2.9896495 0.16252792
21.345755 -3.020941 0.17187583
20.661242 -2.9851773 0.20324409
19.68952 -2.9054892 0.24777305
19.127764 -2.8789949 0.27351606
18.723518 -2.8723412 0.29204166
18.101831 -2.8312762 0.32053053
17.717207 -2.8225825 0.33815658
17.369848 -2.8175156 0.35407531
16.954338 -2.7999039 0.37311637
16.793673 -2.8205526 0.38048017
16.383295 -2.7999363 0.39928627
15.448012 -2.6907513 0.44214404
14.826307 -2.6288986 0.47063327
14.304768 -2.580677 0.4945327
14.061519 -2.5776594 0.50567997
13.841839 -2.5774486 0.51574755
13.673996 -2.5852728 0.52343976
13.198659 -2.5365813 0.54522157
12.542425 -2.4520962 0.57529211
12.256845 -2.4330764 0.58837891
12.177144 -2.4514103 0.59203219
12.21916 -2.4926453 0.59010816
12.304043 -2.5424438 0.58622003
12.261495 -2.5675795 0.58817077
12.159342 -2.5805686 0.59285283
11.917894 -2.5647776 0.60391712
11.829509 -2.5791006 0.60796809
8.2030163 -2.1473253 0.77414662
8.1777935 -2.1634643 0.77530301
8.1215849 -2.1717522 0.77787936
8.0071268 -2.1650748 0.78312439
7.729373 -2.1162338 0.79585147
7.3605962 -2.0424762 0.81274909
7.0699916 -1.9870206 0.82606477
6.9291334 -1.969299 0.83251941
6.8715649 -1.9729049 0.83515769
6.9395013 -2.0098333 0.83204579
6.9583335 -2.0338378 0.83118355
6.9943171 -2.0626349 0.8295356
6.9943323 -2.0816941 0.8295356
6.9759893 -2.0956333 0.83037674
6.9118619 -2.0965781 0.83331549
6.7544179 -2.0706387 0.84052992
6.6292844 -2.0531168 0.84626383
6.5565839 -2.0501082 0.84959543
6.5204072 -2.0573878 0.85125369
6.5144286 -2.073386 0.85152823
6.5144424 -2.0911372 0.85152823
6.4965439 -2.103502 0.85234886
6.4317098 -2.1015284 0.8553201
6.3299708 -2.0879028 0.85998207
6.18788 -2.0612593 0.86649275
6.2204781 -2.0882738 0.86499977
6.5305343 -2.2026763 0.85079473
6.64009 -2.2552009 0.84577602
6.7374868 -2.3044341 0.84131432
6.6866527 -2.3063943 0.84364408
6.6740746 -2.3205194 0.844221
6.5559173 -2.2999518 0.84963512
6.152689 -2.1844778 0.86811
5.803422 -2.0847967 0.88411254
5.6330042 -2.0433261 0.89192092
5.5986919 -2.0470448 0.89349341
5.6164494 -2.0683613 0.89268047
5.6388025 -2.0913568 0.89165682
5.6298571 -2.1036131 0.89206731
5.58991 -2.1049781 0.89389801
5.5399895 -2.1026106 0.89618564
5.4982557 -2.1028783 0.89809823
4.9360008 -1.9569587 0.92385983
4.9245806 -1.9661924 0.92438358
4.9154844 -1.976227 0.92480081
4.9475183 -2.0016053 0.9233337
5.0067053 -2.037394 0.92062253
4.9537959 -2.0309424 0.92304701
4.9184508 -2.0309191 0.92466682
4.8601661 -2.0218687 0.92733753
4.83178 -2.0240967 0.92863852
4.7893491 -2.0206847 0.93058288
4.7381363 -2.0135875 0.93292958
4.6423907 -1.9885743 0.93731648
4.5683131 -1.9716802 0.94071066
4.5186768 -1.964195 0.94298518
4.4806027 -1.9611129 0.94472986
4.4524679 -1.961868 0.94601923
4.4246845 -1.9626138 0.94729251
4.3747592 -1.9540774 0.94958013
4.3129125 -1.9403205 0.95241404
4.2863445 -1.9409668 0.95363158
4.2649851 -1.9436589 0.95461053
4.2496529 -1.9487855 0.95531332
4.2293773 -1.951723 0.95624262
4.2165675 -1.9577508 0.95682997
4.230701 -1.9753331 0.9561829
4.1814084 -1.9654548 0.9584415
4.1222467 -1.9509962 0.96115214
4.0711842 -1.9397757 0.96349192
4.0413504 -1.9376673 0.96485901
4.009357 -1.9344354 0.96632504
3.9913058 -1.9372721 0.96715236
3.9689667 -1.9380788 0.96817625
3.9424863 -1.9368867 0.96938968
3.9206889 -1.9376856 0.97038865
3.886914 -1.9328717 0.97193635
3.8413851 -1.9224507 0.97402239
3.8199046 -1.9229431 0.97500688
3.7947896 -1.9216216 0.97615778
3.788713 -1.9291035 0.9764365
3.7816472 -1.9360849 0.97676063
3.7695894 -1.9406565 0.97731328
3.7399075 -1.9367424 0.97867346
3.6346316 -1.8963456 0.98349649
3.6216412 -1.8999674 0.984092
3.6414936 -1.9194776 0.98318291
3.6379421 -1.9276595 0.98334599
3.6329777 -1.9351281 0.98357379
3.5971689 -1.9273293 0.98521447
3.5444179 -1.9109185 0.98763138
3.5250378 -1.9108902 0.98851949
3.4967282 -1.9062712 0.98981667
3.4687076 -1.9016442 0.99110067
3.445992 -1.8995578 0.9921416
3.4097707 -1.8904541 0.99380118
3.3990345 -1.8942305 0.99429333
3.3864381 -1.8969892 0.99487066
3.2412918 -1.8750732 1.0015216
3.2291455 -1.8774025 1.0020783
3.2185411 -1.8804947 1.0025644
3.2091818 -1.8842015 1.0029935
3.197608 -1.8866553 1.0035241
3.1804004 -1.8859705 1.0043125
3.1557326 -1.8810996 1.0054429
3.1367893 -1.87925 1.0063109
3.1229775 -1.8801402 1.0069439
3.1147516 -1.8840649 1.007321
3.1092937 -1.8894936 1.0075713
3.0957227 -1.8903314 1.0081934
3.0769186 -1.888139 1.009055
3.0607183 -1.8873221 1.0097973
3.0478292 -1.8883057 1.0103881
3.035531 -1.8895574 1.0109518
3.0075741 -1.881726 1.0122327
2.9665878 -1.8662047 1.0141104
2.9473305 -1.8630899 1.0149928
2.9343245 -1.8635206 1.0155889
2.9234405 -1.8651255 1.0160878
2.9114411 -1.8660135 1.0166377
2.9019134 -1.8682997 1.0170743
2.8830376 -1.8649735 1.0179393
2.8622584 -1.8604066 1.0188913
2.8425906 -1.8563939 1.0197926
2.8244765 -1.8532112 1.0206225
2.8155088 -1.8554699 1.0210336
2.8043778 -1.8563634 1.0215437
2.793334 -1.8572499 1.0220499
2.780195 -1.8567896 1.022652
2.7585654 -1.8510222 1.023643
2.7415037 -1.8479661 1.0244248
2.7242026 -1.8446685 1.0252175
2.7131875 -1.8452038 1.0257224
2.7069774 -1.8486943 1.0260072
2.5105433 -1.81429 1.035008
2.5081804 -1.8195525 1.0351164
2.5034623 -1.823228 1.0353329
2.4946587 -1.8241363 1.0357363
2.4859171 -1.8250382 1.036137
2.4763715 -1.8253484 1.0365745
2.4694762 -1.827407 1.0368905
2.4589591 -1.8269581 1.0373725
2.4414647 -1.8216742 1.038174
2.4220486 -1.814974 1.0390636
2.4117746 -1.8144778 1.0395343
2.4001162 -1.8129662 1.0400686
2.3944473 -1.8155576 1.0403285
2.3863931 -1.8164521 1.0406976
2.3752058 -1.8151064 1.0412103
2.3688624 -1.8171088 1.041501
2.3601933 -1.8174334 1.0418984
2.3508074 -1.8172026 1.0423285
2.3420486 -1.8173671 1.0427299
2.3260646 -1.8123201 1.0434623
2.3172364 -1.8123198 1.0438668
2.3049731 -1.8097974 1.0444287
2.2967646 -1.8101393 1.0448048
2.2900929 -1.8115516 1.0451107
2.2783237 -1.8092149 1.04565
2.2724867 -1.8111507 1.0459175
2.2645078 -1.8114831 1.0462832
2.2558668 -1.8112844 1.0466791
2.2497363 -1.8128945 1.0469602
2.2336092 -1.8070548 1.047699
2.2272325 -1.8083872 1.0479913
2.2212567 -1.8099846 1.0482652
2.2129424 -1.8097954 1.0486462
2.2037106 -1.8088706 1.0490693
2.1955268 -1.808687 1.0494443
2.1856694 -1.8071901 1.049896
2.1749473 -1.804981 1.0503874
2.1613135 -1.8004904 1.0510119
2.1541886 -1.8009138 1.0513384
2.148598 -1.8024782 1.0515947
2.1434069 -1.8043203 1.0518327
2.1332774 -1.8023095 1.0522969
2.1214287 -1.798907 1.0528398
2.1152849 -1.7998903 1.0531213
2.1102531 -1.8017099 1.053352
2.1090024 -1.8064721 1.0534095
2.1048331 -1.8089269 1.0536007
2.100266 -1.8110443 1.05381
2.0969577 -1.8141363 1.0539618
1.9209818 0.54503167 1.0567349
1.9281099 0.54235005 1.0563891
1.9291397 0.53745651 1.0563393
1.939764 0.53595006 1.0558237
1.9480271 0.5335573 1.0554227
1.952636 0.52984703 1.0551991
1.9560308 0.52569234 1.0550345
1.9571162 0.52072775 1.0549821
1.962545 0.51723373 1.0547187
1.9669104 0.51335168 1.054507
1.9712954 0.50945222 1.0542943
1.9756999 0.50553548 1.0540806
2.2258158 0.52779913 1.04194
2.2400911 0.52603495 1.0412471
2.2513354 0.52328646 1.0407015
2.2558482 0.51848197 1.0404826
2.2643032 0.51481009 1.0400724
2.2861047 0.51497447 1.0390142
2.3073523 0.51486027 1.0379829
2.3335721 0.51604939 1.0367103
2.3440981 0.51265883 1.0361996
2.3606248 0.51089096 1.0353974
2.4003346 0.51546013 1.0334699
2.4139776 0.51265705 1.0328078
2.4315083 0.51083636 1.031957
2.455848 0.51075172 1.0307757
2.5326705 0.52451205 1.0270463
2.5640173 0.52586591 1.0255249
2.5945194 0.52682841 1.0240444
2.6122084 0.52431691 1.0231858
2.6346133 0.52291358 1.0220984
2.6579762 0.52162993 1.0209646
2.6815629 0.520275 1.0198197
2.6919987 0.51553988 1.0193135
2.7278123 0.51695287 1.0175751
2.7362504 0.51155186 1.0171658
2.7511387 0.5076468 1.0164433
2.7777636 0.5064342 1.015151
2.8108473 0.50658488 1.0135453
2.8390803 0.50543523 1.012175
2.8737602 0.50560248 1.0104917
2.9227924 0.50881553 1.0081117
2.9534473 0.50766897 1.006624
2.987571 0.50711811 1.0049677
3.0015671 0.50200903 1.0042886
3.0314937 0.50024068 1.0028361
3.1150665 0.50966966 0.9987793
3.148577 0.50817752 0.99715292
3.1776483 0.50558686 0.99574202
3.1901975 0.49947396 0.99513316
3.232738 0.49931666 0.9930684
3.2847264 0.50079918 0.99054497
3.3673403 0.50798237 0.98653495
3.4084053 0.50670958 0.98454177
3.4334369 0.50216722 0.98332703
3.4544992 0.49674538 0.98230493
3.4772847 0.49152657 0.98119915
3.4919891 0.4847146 0.98048568
3.5023589 0.4770464 0.97998273
3.5023663 0.46749476 0.97998273
3.5023739 0.45794311 0.97998273
3.5023816 0.44839147 0.97998273
3.5058572 0.43942282 0.97981435
3.5128205 0.43101224 0.97947669
3.5128281 0.42143217 0.97947669
3.5198197 0.41296908 0.97913778
3.5460122 0.40748665 0.97786665
3.6153266 0.40852317 0.97450221
3.6515515 0.40415999 0.97274423
3.6918061 0.40019962 0.97079051
3.7944202 0.40514347 0.96580982
3.8600852 0.4042224 0.96262264
3.8951752 0.39863673 0.96091974
3.9213736 0.39163151 0.95964837
3.9228301 0.38113359 0.9595781
4.7047176 0.35868397 0.92162871
4.7417784 0.34975886 0.91983026
4.8654208 0.34952086 0.91382909
4.9881444 0.34851667 0.9078725
5.0463777 0.34057382 0.90504646
5.0587478 0.32797992 0.90444648
5.0867877 0.31675658 0.90308595
5.1724219 0.31050792 0.89892977
5.2339578 0.3017126 0.89594328
5.2774272 0.29107174 0.89383388
5.2932162 0.27795577 0.89306802
5.3051229 0.26445049 0.89249068
5.3091106 0.25028333 0.89229769
5.3331094 0.23754862 0.89113337
5.4099402 0.22837824 0.88740462
5.7792234 0.23844579 0.86948043
6.0903864 0.24275127 0.85437739
6.3279037 0.24081135 0.84284914
6.4503155 0.23078096 0.8369081
6.5096154 0.21652946 0.83403045
6.5096297 0.19877818 0.83403045
6.4857993 0.17981434 0.83518773
6.4353004 0.15969718 0.83763957
6.3787904 0.13958254 0.84038317
6.499445 0.127336 0.83452749
6.590466 0.11324775 0.83011019
6.6565504 0.097735122 0.82690328
6.6970272 0.080978975 0.82493925
6.7049341 0.062967613 0.82455629
6.6753731 0.043825284 0.82599175
6.6894546 0.025992483 0.82530898
6.7195187 0.0084598064 0.82385051
6.8719225 -0.0066853017 0.81645387
6.9399128 -0.024191782 0.81315458
6.9959421 -0.042253211 0.81043571
6.9895139 -0.061411731 0.81074852
10.590196 -0.044653073 0.63598251
10.889181 -0.071372069 0.62147188
11.455471 -0.098520249 0.59398699
11.946838 -0.12888905 0.57013881
12.401074 -0.16190182 0.54809296
12.558156 -0.19629619 0.54046988
12.394926 -0.22949281 0.54839408
11.827245 -0.25810239 0.57594848
11.715483 -0.28902626 0.58137417
11.765551 -0.32170218 0.57894528
12.08682 -0.35934836 0.5633533
12.339534 -0.39737204 0.55108905
12.603038 -0.43701953 0.53830099
12.73907 -0.47485319 0.53169978
13.068152 -0.51887786 0.51572883
13.263959 -0.56057155 0.50622654
13.263988 -0.59673899 0.50622654
13.46575 -0.64025104 0.49643552
13.517176 -0.67897987 0.49394119
13.726774 -0.72461021 0.48376942
14.346416 -0.78966618 0.45369673
15.532996 -0.88492477 0.39610755
16.396225 -1.2834097 0.3542248
17.026884 -1.3734289 0.32361805
17.607388 -1.463146 0.2954458
18.023447 -1.5433162 0.27525485
18.115679 -1.5998379 0.27078021
18.446314 -2.129221 0.25475299
18.973391 -2.2375026 0.22917449
18.66864 -2.2548695 0.2439667
17.810349 -2.206655 0.28562367
17.410154 -2.2079079 0.30504763
16.706278 -2.1702542 0.33921003
16.922983 -2.2425973 0.3286947
19.248621 -2.5826488 0.21582901
20.489485 -2.7953296 0.15560997
21.614933 -2.9995601 0.10099208
21.465267 -3.0383484 0.10825765
20.772882 -3.0018137 0.14186251
19.8459 -2.9286563 0.18685257
19.170729 -2.8863878 0.2196213
18.764503 -2.8795595 0.23933804
18.233246 -2.8519876 0.26512253
17.798067 -2.836019 0.28624403
17.447401 -2.8306625 0.30326402
17.110292 -2.8255131 0.31962597
16.865896 -2.8332758 0.33148849
16.375776 -2.7999423 0.35527587
15.316912 -2.6703517 0.40666461
14.65309 -2.6010675 0.43888175
14.224373 -2.5681314 0.4596889
13.999513 -2.568069 0.47060287
13.835486 -2.5774536 0.47856474
13.675259 -2.586621 0.48634207
13.308266 -2.5575101 0.50415361
12.574821 -2.4591062 0.53974867
12.293742 -2.4410052 0.5533905
12.182021 -2.4533937 0.55881357
12.182048 -2.4866068 0.55881357
12.284179 -2.5396824 0.5538584
12.241749 -2.5647986 0.55591905
12.145823 -2.5789857 0.56057549
11.960314 -2.5744894 0.56957924
11.780384 -2.5701282 0.57831228
8.1992521 -2.1473281 0.75211239
8.1740408 -2.1634674 0.75333661
8.1214037 -2.1726382 0.7558918
7.9199419 -2.1440518 0.76566905
7.5875759 -2.0810513 0.7817986
7.3480606 -2.0401232 0.79342222
7.0844383 -1.9916222 0.80621576
6.9637461 -1.9792287 0.81207323
6.9072256 -1.9832088 0.81481677
7.0049028 -2.0282257 0.81007755
6.9884653 -2.0428665 0.81087595
6.9837561 -2.060626 0.81110519
6.9963837 -2.0831501 0.81049311
6.9590898 -2.0918133 0.81230366
6.9221916 -2.1003847 0.8140949
6.7470326 -2.0694218 0.8225953
6.6156344 -2.0500724 0.82897228
6.5475183 -2.0483546 0.83227831
6.511425 -2.0556371 0.83403045
6.5114393 -2.0733883 0.83403045
6.5234451 -2.0947146 0.83344853
6.5174575 -2.110693 0.83373982
6.4605837 -2.1111917 0.83650017
6.3308363 -2.0890598 0.8427968
6.1912174 -2.0631704 0.8495726
6.2103562 -2.0860105 0.84864444
6.511538 -2.1976476 0.83403045
6.6228609 -2.2507048 0.8286292
6.7216167 -2.3003485 0.82383788
6.6835842 -2.3063967 0.82568407
6.6495447 -2.3135369 0.82733643
6.4748816 -2.274354 0.83581257
6.099041 -2.1676662 0.85405046
5.7630105 -2.0722079 0.87035662
5.6151195 -2.0381835 0.87753344
5.5872965 -2.0440545 0.87888414
5.6138721 -2.0683634 0.87759519
5.6362152 -2.0913589 0.87651157
5.6272736 -2.103615 0.87694603
5.578546 -2.1019015 0.87931108
5.5140514 -2.0943627 0.8824411
5.4570298 -2.0891278 0.88520855
5.1092305 -1.9794627 0.90208536
5.0155444 -1.9595852 0.90663183
4.9475069 -1.9485208 0.90993375
4.9200315 -1.951941 0.91126746
4.920042 -1.9653531 0.91126746
4.913229 -1.9762288 0.91159856
4.935143 -1.9978236 0.91053569
4.9996996 -2.03562 0.90740377
4.9272547 -2.0217252 0.91091955
4.9045258 -2.0264568 0.91202289
4.8527079 -2.0198555 0.91453779
4.826273 -2.0228219 0.9158209
4.7871513 -2.0206864 0.9177196
4.7359624 -2.0135891 0.92020392
4.6402607 -1.9885759 0.92484796
4.5606189 -1.9694483 0.92871279
4.4971094 -1.9563662 0.93179482
4.4777384 -1.9607874 0.93273526
4.4552221 -1.9638228 0.93382818
4.4329324 -1.9668278 0.93491018
4.3717237 -1.9536549 0.93788052
4.3239627 -1.945733 0.94019842
4.2940226 -1.9450002 0.94165158
4.273313 -1.9479877 0.94265687
4.2528024 -1.9509465 0.94365251
4.2299604 -1.9528003 0.94476116
4.2232461 -1.9614468 0.94508749
4.2197819 -1.9714595 0.94525599
4.1844263 -1.9676007 0.94697195
4.1275568 -1.9541451 0.94973165
4.0739961 -1.9418354 0.95233083
4.0394959 -1.9376687 0.95400524
4.0042825 -1.9329962 0.95571417
3.984987 -1.9352632 0.95665073
3.9627082 -1.9360802 0.9577322
3.9450655 -1.9388778 0.9585886
3.9232299 -1.9396667 0.95964837
3.8900058 -1.9351104 0.9612608
3.8285575 -1.9173441 0.9642427
3.802345 -1.9156047 0.96551484
3.7809043 -1.9159507 0.96655548
3.7728596 -1.9224735 0.96694624
3.7648487 -1.9289684 0.96733528
3.7489209 -1.9316572 0.96810853
3.714118 -1.9252372 0.96979749
3.6302166 -1.8950262 0.97386861
3.622447 -1.9011617 0.97424597
3.6378298 -1.91851 0.97350001
3.5313148 -1.9052153 0.97866935
3.5172992 -1.907832 0.97934973
3.4908192 -1.9041095 0.98063487
3.4578102 -1.896944 0.98223674
3.4310677 -1.8927815 0.98353457
3.4082062 -1.8904552 0.98464406
3.4016688 -1.896385 0.98496163
3.3935304 -1.9014527 0.98535687
3.2325654 -1.8712199 0.99316835
3.223748 -1.8753078 0.99359655
3.2178993 -1.880945 0.99388057
3.2106161 -1.8857744 0.99423432
3.196141 -1.8866565 0.99493694
3.177516 -1.8851931 0.99584085
3.1542847 -1.8811007 0.99696827
3.1353502 -1.8792512 0.99788713
3.1187971 -1.8786184 0.99869061
3.1092243 -1.8817835 0.99915534
3.0997102 -1.8849291 0.99961722
3.0835304 -1.8842739 1.0004026
3.0675187 -1.8836254 1.0011797
3.0535133 -1.884029 1.0018594
3.0455582 -1.8878087 1.0022457
3.0358717 -1.8905522 1.0027159
3.0074096 -1.8824271 1.0040971
2.9737601 -1.8711445 1.0057299
2.9504762 -1.8657066 1.0068598
2.9341929 -1.8642312 1.0076501
2.9229031 -1.8655983 1.0081981
2.9089108 -1.8653102 1.0088773
2.8993952 -1.8675977 1.0093392
2.8805437 -1.8642774 1.0102541
2.8612752 -1.860605 1.0111892
2.8390098 -1.8550277 1.0122696
2.8224311 -1.8527598 1.0130743
2.8142171 -1.855471 1.013473
2.8075333 -1.8590686 1.0137975
2.8030972 -1.8640043 1.0140131
2.7913253 -1.8644103 1.0145844
2.7594473 -1.852348 1.0161313
2.7405486 -1.8481547 1.0170484
2.7223554 -1.8442974 1.0179312
2.7126348 -1.8456373 1.0184031
2.707459 -1.8497771 1.0186545
2.509984 -1.814684 1.0282379
2.507621 -1.8199474 1.0283529
2.5023139 -1.823229 1.0286105
2.4952705 -1.8253162 1.0289525
2.4865205 -1.8262146 1.0293772
2.4769657 -1.8265203 1.0298409
2.4683435 -1.8274078 1.0302595
2.4563708 -1.8259624 1.0308406
2.4425879 -1.8232117 1.0315094
2.4223559 -1.8159506 1.0324911
2.4139526 -1.8167466 1.0328991
2.4006405 -1.8140939 1.033545
2.3941576 -1.8161212 1.0338597
2.3861017 -1.8170142 1.0342509
2.374912 -1.8156654 1.0347939
2.3685672 -1.8176668 1.0351019
2.3591106 -1.8174342 1.035561
2.3486166 -1.8164141 1.0360702
2.3394289 -1.8162671 1.0365162
2.323473 -1.8112309 1.0372905
2.3154171 -1.8117775 1.0376815
2.3039157 -1.8097982 1.0382396
2.295711 -1.8101401 1.0386379
2.2883036 -1.811016 1.0389974
2.2772787 -1.8092158 1.0395324
2.2707167 -1.8106194 1.0398511
2.263469 -1.811484 1.0402029
2.2553446 -1.811663 1.0405972
2.2446682 -1.8099108 1.0411153
2.2278721 -1.8035578 1.0419303
2.2206302 -1.8042309 1.0422819
2.2160721 -1.8068711 1.0425031
2.2105472 -1.8087608 1.0427713
2.2036784 -1.8096083 1.0431048
2.1958795 -1.8097155 1.0434833
2.1860147 -1.8082132 1.0439621
2.1752839 -1.8059977 1.0444828
2.1625824 -1.802218 1.0450991
2.1518931 -1.799912 1.0456179
2.1440854 -1.7997651 1.0459969
2.1385448 -1.8013259 1.0462658
2.1295528 -1.8001826 1.0467023
2.1200929 -1.7986261 1.0471613
2.1143148 -1.799891 1.0474418
2.1080303 -1.8007281 1.0477469
2.10553 -1.8045043 1.0478685
2.1017878 -1.8072879 1.0480502
1.9249737 0.54679537 1.0513202
1.930649 0.5435797 1.0510296
1.9324657 0.53895748 1.0509366
1.9420652 0.53707874 1.0504447
1.9471325 0.53355658 1.0501852
1.9506633 0.52947152 1.0500044
1.9540527 0.5253185 1.0498309
1.9551367 0.52035642 1.0497755
1.9616436 0.51723301 1.0494422
1.9660069 0.51335096 1.0492188
1.9703898 0.50945151 1.0489943
1.9747924 0.50553477 1.0487688
2.2247934 0.5277983 1.0359558
2.2390621 0.52603412 1.0352247
2.2480891 0.52262366 1.0347621
2.253855 0.5181973 1.0344669
2.2613351 0.51424289 1.0340837
2.2726762 0.51137137 1.0335026
2.3015785 0.51350045 1.0320213
2.3236034 0.51350796 1.0308926
2.3359513 0.5106585 1.0302598
2.3505855 0.50838184 1.02951
2.369149 0.50711524 1.0285587
2.3938498 0.50743294 1.0272928
2.4139829 0.50637376 1.0262611
2.4393883 0.50662398 1.0249591
2.4810579 0.51106906 1.0228235
2.5212853 0.51490629 1.0207617
2.5895326 0.52583706 1.0172637
2.6132116 0.52488494 1.0160502
2.6340568 0.52307963 1.014982
2.6481407 0.51945114 1.0142604
2.6616135 0.51559317 1.0135701
2.6787918 0.51257813 1.0126898
2.7211087 0.51561868 1.0105211
2.7295091 0.51022434 1.0100908
2.7572205 0.50940239 1.0086707
2.7706919 0.5050627 1.0079805
2.8025641 0.50494969 1.0063471
2.8338377 0.50452447 1.0047444
2.8771107 0.50666726 1.0025266
2.9255898 0.50974798 1.0000421
2.9542031 0.50813854 0.99857575
2.9861989 0.50711703 0.99693608
3.0027339 0.50256109 0.99608886
3.0360429 0.50151455 0.9943819
3.1110296 0.50911617 0.9905386
3.1407478 0.50684142 0.98901576
3.1684706 0.50399256 0.98759508
3.1892798 0.49958435 0.98652881
3.2332683 0.49972036 0.98427451
3.284282 0.50100887 0.98166013
3.3494124 0.50477874 0.97832215
3.3900576 0.50347328 0.9762392
3.4242704 0.50072372 0.97448593
3.4495473 0.49611375 0.97319078
3.4791045 0.49215588 0.97167611
3.4938312 0.48533991 0.97092175
3.5076895 0.47828802 0.97021186
3.5076971 0.46871743 0.97021186
3.5077047 0.45914683 0.97021186
3.5077124 0.44957623 0.97021186
