# .PCD v0.7 - Point Cloud Data file format
VERSION 0.7
FIELDS x y z
SIZE 4 4 4
TYPE F F F
COUNT 1 1 1
WIDTH 1483
HEIGHT 1
VIEWPOINT 0 0 0 1 0 0 0
POINTS 1483
DATA ascii
7.2582464 -3.7075479 -0.29097259
7.3197727 -3.7581556 -0.30318415
7.366611 -3.8018253 -0.31247962
7.414052 -3.8460574 -0.32189476
7.5224547 -3.9211156 -0.34341228
7.6134057 -3.987982 -0.36146522
7.6028914 -4.0039229 -0.3593744
7.5487237 -3.9975555 -0.34861732
7.6233072 -4.056869 -0.36342096
7.4910827 -4.0100341 -0.3371675
7.4818292 -4.0261693 -0.33532727
7.4221478 -4.015986 -0.32347572
7.3511009 -3.9995172 -0.30936801
7.2559671 -3.9699709 -0.29047835
7.306716 -4.0171013 -0.30054998
7.3489165 -4.0599675 -0.30892444
7.3355584 -4.0733547 -0.30626953
7.3799696 -4.1177254 -0.31508291
7.424921 -4.1626358 -0.32400334
7.5328588 -4.242013 -0.34542787
7.6065831 -4.3033128 -0.36006033
7.3201637 -4.2491741 -0.30318415
7.3513298 -4.2871637 -0.30936801
7.4464064 -4.3614736 -0.32823908
7.5275393 -4.4283891 -0.34434199
7.5439911 -4.4588146 -0.34760463
7.5088763 -4.4597354 -0.34063041
7.359241 -4.3944101 -0.31092215
7.289391 -4.3744879 -0.2970525
6.0049357 -3.7810698 -0.042045236
5.9967122 -3.7928481 -0.040410161
5.9522066 -3.7824392 -0.0315727
5.9114861 -3.7741022 -0.023486614
5.8763113 -3.7689531 -0.016501665
5.8415532 -3.7638652 -0.0095992088
5.8366327 -3.7771249 -0.0086197853
5.8366456 -3.7934368 -0.0086197853
5.8268161 -3.8035772 -0.0066660643
5.7877884 -3.7952731 0.0010838509
5.74928 -3.7870791 0.0087305307
5.6924629 -3.7670369 0.020011663
5.6275778 -3.7415283 0.032894254
5.5731297 -3.7223468 0.043704867
5.5046511 -3.6938283 0.057300687
5.4513159 -3.6747189 0.067890406
5.3229632 -3.6065965 0.093371391
5.287292 -3.5982015 0.10045457
5.3105206 -3.6281841 0.095845819
5.3323865 -3.6574001 0.091507792
5.3023949 -3.6524839 0.097463608
5.2904229 -3.6593528 0.09984231
5.2513819 -3.6481237 0.10759437
5.1952486 -3.625242 0.11873925
4.8126121 -3.4364979 0.19470346
4.783752 -3.430151 0.20043433
4.7661672 -3.4314053 0.20392698
4.7497988 -3.433403 0.20717812
4.7086635 -3.4181185 0.2153455
4.6489449 -3.3896549 0.22720146
4.5841098 -3.3572776 0.24007303
4.5433073 -3.3414197 0.24817419
4.5081763 -3.3293335 0.25514942
4.4906106 -3.329488 0.25863814
4.4673986 -3.3255301 0.26324761
4.4530163 -3.3277442 0.26610446
4.4415784 -3.3319871 0.26837665
4.4124207 -3.323422 0.27416629
4.3615117 -3.2989895 0.28427327
4.2880692 -3.2579405 0.29885292
4.2566371 -3.2470477 0.30509377
4.2234178 -3.234673 0.3116895
4.1787786 -3.2137411 0.32055175
4.1772761 -3.2243059 0.3208518
4.1886988 -3.2444105 0.31858647
4.3285761 -3.3598349 0.29082406
4.3575487 -3.3934891 0.28507525
4.3678994 -3.4133925 0.28302264
4.3497324 -3.4119675 0.28663051
4.3376331 -3.4150083 0.28903401
4.3412762 -3.4298744 0.28831291
4.3412857 -3.4420059 0.28831291
4.3577189 -3.4666374 0.28505301
4.3577285 -3.4788148 0.28505301
4.357738 -3.4909923 0.28505301
4.357748 -3.5031695 0.28505301
4.335887 -3.498457 0.28939402
4.2627997 -3.4539189 0.30390263
4.1967416 -3.4144406 0.31701589
4.1542282 -3.3929729 0.3254559
4.1299462 -3.3855507 0.33027732
4.1348972 -3.4009767 0.32929647
4.1398597 -3.4164398 0.32831335
4.1498117 -3.4358807 0.3263399
4.4054041 1.5344667 0.26222748
4.4054136 1.5221391 0.26222748
4.4152875 1.5135278 0.26023972
4.4231257 1.5041001 0.25866222
4.4186049 1.4900411 0.25957525
4.4271173 1.4808087 0.25786179
4.4356632 1.4715407 0.25614166
4.4413819 1.4611994 0.25499129
4.4356828 1.4467163 0.25614166
4.4442616 1.4373645 0.25441498
4.4414115 1.4239148 0.25499129
4.4414215 1.4114866 0.25499129
4.4406147 1.3987738 0.2551558
4.4055314 1.3742064 0.26222748
4.3945885 1.3581198 0.2644347
4.3850255 1.3425646 0.26636368
4.3794703 1.3284158 0.26748514
4.3906236 1.3198918 0.26523954
4.4001503 1.3107654 0.26332176
4.3542399 1.2833364 0.27257526
4.3899693 1.2828107 0.2653774
4.407371 1.2761545 0.26187271
4.438674 1.2738602 0.2555669
4.4604015 1.2683462 0.25119054
4.4608235 1.255995 0.25110751
4.4444199 1.2383854 0.25441498
4.4596081 1.2306483 0.25135648
4.4800181 1.2244283 0.24724567
4.4768453 1.210925 0.24788702
4.4352121 1.1858553 0.2562784
4.3538227 1.1491561 0.27268076
4.32164 1.1274574 0.27916771
4.3031745 1.1099554 0.28289062
4.3104787 1.1000301 0.28142071
4.3031936 1.085874 0.28289062
4.2776771 1.0665736 0.28803408
4.2771816 1.0544621 0.28813589
4.2823215 1.0439245 0.28710216
4.2745519 1.0297951 0.28866965
4.3017092 1.0252513 0.28319943
4.3393221 1.0233831 0.27562225
4.3649435 1.0180953 0.2704615
4.3502808 1.0019965 0.27341795
4.3202095 0.98194265 0.27947927
4.2675614 0.95620489 0.29008973
4.2176538 0.93146467 0.30014801
4.1765876 0.90924609 0.30842465
4.1538558 0.89185619 0.31300688
4.1567245 0.8809427 0.3124308
4.207408 0.88173831 0.30222011
4.2493534 0.88013232 0.29377007
4.2616057 0.87117612 0.29130328
4.2486248 0.85617578 0.29392076
4.2241201 0.83855116 0.29886019
4.2337527 0.82895732 0.29692119
4.2416911 0.81892252 0.29532349
4.2295713 0.80431771 0.29776746
4.1950626 0.78479183 0.30472267
4.1800237 0.76974297 0.30775481
4.2145967 0.76555598 0.30079043
4.1955762 0.74968314 0.3046248
4.1613793 0.73070478 0.31151712
4.1309118 0.71269667 0.31765801
4.099031 0.69456816 0.32408345
4.084487 0.68014157 0.3270157
4.0914135 0.67009997 0.32562196
4.1120815 0.6627357 0.32145941
4.1235542 0.6534642 0.31914961
4.1476321 0.64654934 0.3143
4.1483536 0.63507938 0.31415659
4.1533551 0.6244036 0.31315076
4.1590838 0.61383355 0.31199825
4.1768293 0.6054045 0.30842465
4.1861262 0.59537208 0.30655336
4.2102084 0.58787882 0.30170298
4.2116861 0.57635236 0.30140722
4.2142663 0.56500506 0.30088919
4.2183223 0.55388939 0.30007374
4.2127419 0.54117024 0.30120009
4.1919928 0.5260359 0.30538261
4.1767836 0.51189578 0.30844897
4.1584606 0.49735621 0.31214255
4.1584702 0.48572156 0.31214255
4.163496 0.47483978 0.31113178
4.173574 0.46467414 0.30910307
4.1996994 0.45677057 0.30384111
4.2246771 0.44855824 0.2988106
4.2298636 0.43745753 0.29776746
4.2402658 0.42703763 0.29567355
4.2298822 0.41378912 0.29776746
4.9032769 -0.072627559 0.16218501
4.862308 -0.086876482 0.17044079
4.8211207 -0.10089834 0.17874062
4.7916851 -0.11460289 0.18467283
4.7669296 -0.12812121 0.18966222
4.7505393 -0.14148596 0.19296622
4.7319446 -0.15475674 0.19671446
4.6901646 -0.16783527 0.20513344
4.6738453 -0.18084802 0.20842314
4.671145 -0.19389738 0.20896918
4.6711555 -0.20696464 0.20896918
4.6902065 -0.22031736 0.20513344
4.690217 -0.2334379 0.20513344
4.690227 -0.24655843 0.20513344
4.6838732 -0.25953013 0.20641559
4.6712074 -0.27230096 0.20896918
4.64607 -0.28463948 0.21403533
4.621202 -0.29684579 0.21904725
4.6027269 -0.30913407 0.22277105
4.5904961 -0.32155219 0.22523707
4.5905066 -0.33439356 0.22523707
4.5905166 -0.34723493 0.22523707
4.5844302 -0.3597973 0.22646511
4.5844407 -0.3726216 0.22646511
4.5844507 -0.38544592 0.22646511
4.5844607 -0.39827025 0.22646511
4.5905676 -0.41144174 0.22523707
4.5966907 -0.42464834 0.2240057
4.6054616 -0.43805474 0.22224081
4.6390691 -0.45313311 0.2154727
4.6826782 -0.46908092 0.20668995
4.7506585 -0.48700148 0.19299763
4.7994189 -0.50388503 0.18317735
4.8013363 -0.51745641 0.18279314
4.7797418 -0.52917325 0.18714535
4.7387457 -0.53917581 0.19540596
4.7050796 -0.54957139 0.20218998
4.7096753 -0.56313503 0.20126635
4.7258029 -0.57776827 0.19801956
4.755106 -0.59372097 0.19211882
4.7729616 -0.60873723 0.18852413
4.7619991 -0.62100315 0.19073451
4.7543354 -0.63354313 0.19228041
4.742085 -0.6455608 0.19475025
4.7726898 -0.66210818 0.18858743
4.794796 -0.67789114 0.18413645
4.8196702 -0.69411016 0.17912793
4.7992611 -0.70522952 0.18324125
4.8072276 -0.71959662 0.1816386
4.8081946 -0.73315942 0.18144608
4.8082051 -0.74660885 0.18144608
4.8398566 -0.7640729 0.17507243
4.8299179 -0.77632058 0.1770767
4.7967849 -0.78544009 0.18375301
4.7825561 -0.79693139 0.18662137
4.7882524 -0.81109393 0.18547606
4.8471212 -0.83277845 0.17361999
4.9032364 -0.85439646 0.16231859
4.9212203 -0.87074363 0.15869826
4.8624802 -0.87574017 0.17053276
4.8434873 -0.88645172 0.17436063
4.809998 -0.89481223 0.18110871
4.8200822 -0.90985429 0.17907953
4.8547091 -0.92889047 0.1721068
4.8940449 -0.9488889 0.16418552
4.9627314 -0.97398055 0.15035212
4.9926457 -0.99291039 0.14432871
5.0253596 -1.0124879 0.13774133
5.0004153 -1.0221915 0.14276803
4.9624357 -1.0294453 0.15042055
4.9330716 -1.0380374 0.15633762
4.932076 -1.0516515 0.15654033
5.036438 -1.0848154 0.13552117
5.3007274 -1.1486944 0.082288265
5.4048352 -1.1834242 0.061320543
5.4390759 -1.2051824 0.054425955
5.3777132 -1.2083172 0.066788554
5.4162917 -1.2310565 0.059020162
5.4937348 -1.2618772 0.043423653
5.5308499 -1.2848563 0.035950184
5.6102452 -1.3168364 0.019960523
5.7629981 -1.3647228 -0.010805011
5.8199511 -1.393003 -0.022274137
5.9850955 -1.4450113 -0.055535436
6.0601482 -1.4781978 -0.070649981
6.1931982 -1.5246774 -0.097446561
6.274138 -1.5601887 -0.11374676
6.3784723 -1.6014763 -0.13475907
6.5002928 -1.6473752 -0.15929329
6.6359529 -1.6971821 -0.18661511
6.7040763 -1.7318126 -0.20033348
6.8098755 -1.7758189 -0.22164059
6.8640451 -1.8079462 -0.23254812
6.8845906 -1.8321608 -0.23668337
6.9052596 -1.8565207 -0.24084342
6.8777642 -1.8689582 -0.23530221
6.8816962 -1.8891846 -0.23609102
6.8660712 -1.9044355 -0.23294103
6.8884521 -1.9294167 -0.23744571
6.9310808 -1.9598098 -0.24602878
7.087605 -2.0204997 -0.27755189
7.0994182 -2.0434694 -0.27992821
7.0984607 -2.0630634 -0.27973223
7.1611538 -2.0999837 -0.29235613
7.1760535 -2.1241069 -0.29535401
7.2060232 -2.1525011 -0.30138695
7.1435628 -2.1551187 -0.28880358
7.1358452 -2.1729059 -0.28724587
7.0835767 -2.1778955 -0.27671516
6.9705496 -2.1650288 -0.25394714
6.8910675 -2.1613209 -0.23793542
6.8662853 -2.1732872 -0.23294103
6.8917532 -2.200062 -0.23806739
6.9712811 -2.2432115 -0.25408196
7.0698576 -2.2925785 -0.27393305
7.130259 -2.3308203 -0.28609514
7.1677322 -2.3623238 -0.29363942
7.1628928 -2.3808582 -0.29266155
7.2033682 -2.413605 -0.30081034
7.2148519 -2.4373868 -0.3031199
7.3088655 -2.4876287 -0.32205164
7.3913956 -2.5346911 -0.33867049
7.4072685 -2.5605233 -0.34186399
7.341289 -2.5595782 -0.32857203
7.3198133 -2.5729954 -0.32424355
7.2845325 -2.5816844 -0.3171345
7.2604785 -2.5939548 -0.31228673
7.2867613 -2.6231754 -0.31757677
7.259057 -2.6340683 -0.31199384
7.1629829 -2.6212187 -0.29264104
7.1658311 -2.6422365 -0.29321146
7.1488914 -2.6563325 -0.28979647
7.1914477 -2.6913588 -0.29836428
7.1708388 -2.7041249 -0.29421055
7.1426015 -2.7140369 -0.2885201
7.1173787 -2.7248816 -0.28343713
7.1233878 -2.7469716 -0.28464413
7.2927856 -2.8291185 -0.31875753
7.4223175 -2.8974557 -0.34484172
7.4739742 -2.9374723 -0.35524189
7.5228405 -2.9767296 -0.36508012
7.5146713 -2.9946697 -0.36343145
7.4418077 -2.9878926 -0.34875381
7.3613672 -2.9777975 -0.33254981
7.2625351 -2.9601367 -0.31264234
7.2931604 -2.9923763 -0.31880677
7.3595486 -3.038825 -0.33217371
7.4046545 -3.0772319 -0.34125459
7.3599544 -3.0801368 -0.33224881
7.2783403 -3.0679929 -0.31580913
7.1789198 -3.0482037 -0.29578328
7.1050787 -3.0382566 -0.28090894
7.071835 -3.0445132 -0.27421081
7.0905209 -3.0719838 -0.27797079
7.1344862 -3.1100471 -0.28682184
7.2025309 -3.1584136 -0.30052209
7.254426 -3.2003703 -0.31097019
7.3137069 -3.245743 -0.32290542
7.4012733 -3.303499 -0.34053707
7.4666114 -3.3522112 -0.35369205
7.4675059 -3.3734708 -0.35386896
7.3056664 -3.3240333 -0.32127309
7.3248692 -3.3528531 -0.32513702
7.3315506 -3.3762701 -0.32647932
7.3943644 -3.4245822 -0.33912575
7.394381 -3.4452605 -0.33912575
7.3516679 -3.4467771 -0.33052075
7.316083 -3.4512713 -0.32335114
7.2185125 -3.4274232 -0.30369866
7.2135024 -3.445313 -0.30268633
7.254652 -3.4843912 -0.31097019
7.3006806 -3.5259554 -0.32023621
7.3629637 -3.5753384 -0.33277559
7.3787122 -3.6032913 -0.33594382
7.1348677 -3.5888922 -0.28682184
7.1152821 -3.5993419 -0.28287446
7.1496716 -3.6359985 -0.28979647
7.1496873 -3.6559918 -0.28979647
7.164537 -3.6833003 -0.29278374
7.1944046 -3.7181406 -0.29879534
7.2158971 -3.7489698 -0.30312002
7.364779 -3.8438118 -0.33309829
7.4804397 -3.9227309 -0.3563863
7.4356861 -3.9209437 -0.34737062
7.3219128 -3.8837109 -0.3244561
7.2594137 -3.8721318 -0.31186712
7.2686872 -3.8972039 -0.31373131
7.3017406 -3.9346538 -0.32038414
7.3061709 -3.9573717 -0.32127309
7.224668 -3.9350932 -0.30485713
7.1718135 -3.927448 -0.29421055
7.1668682 -3.9448755 -0.29321146
7.239862 -4.0037622 -0.3079071
7.2703619 -4.0403185 -0.31404579
7.3140059 -4.084115 -0.32283103
7.2858629 -4.2522535 -0.3171345
7.3447609 -4.305944 -0.32899141
7.3860683 -4.3499613 -0.3373059
7.4109917 -4.3848462 -0.3423214
7.3793364 -4.3873825 -0.33594382
7.3245749 -4.3764086 -0.3249135
7.2583966 -4.3585091 -0.31158412
6.0392952 -3.8035676 -0.066075921
6.0058017 -3.8000901 -0.059328914
5.9545336 -3.785573 -0.049003005
5.9036536 -3.7710068 -0.038755059
5.868556 -3.7658808 -0.031685233
5.8338728 -3.7608149 -0.024698853
5.8338857 -3.777127 -0.024698853
5.833899 -3.7934389 -0.024698853
5.8339119 -3.809751 -0.024698853
5.7947712 -3.8013914 -0.016815066
5.7561522 -3.7931433 -0.0090363026
5.6991725 -3.7730076 0.0024393797
5.6249294 -3.7415302 0.017391324
5.570507 -3.7223489 0.028352022
5.493309 -3.6881936 0.043898582
5.4243002 -3.6589046 0.05779624
5.2755661 -3.5774333 0.087746859
5.2086811 -3.5485351 0.10121667
5.2044201 -3.5602994 0.10207701
5.1932526 -3.5674944 0.10432792
5.2515478 -3.6205318 0.092592359
5.2557459 -3.6379936 0.09174943
5.2356491 -3.6392872 0.095798373
4.8036571 -3.4319291 0.18279314
4.7815003 -3.4301527 0.18725646
4.7754507 -3.4393473 0.18847668
4.7655778 -3.4458635 0.19046676
4.7371092 -3.4394116 0.19620097
4.6827574 -3.4147556 0.20714658
4.5921054 -3.3643863 0.22540104
4.5471478 -3.345623 0.23445511
4.5060549 -3.3293352 0.24273092
4.494338 -3.3336267 0.24509203
4.4652963 -3.3255317 0.25094151
4.4394784 -3.3195765 0.25614166
4.4192019 -3.3174486 0.26022625
4.3823647 -3.3032911 0.26764506
4.3321199 -3.279243 0.27776337
4.2518811 -3.2331645 0.29392076
4.2033501 -3.2097182 0.30369389
4.1524539 -3.1842725 0.31394327
4.1150155 -3.1684141 0.32148296
4.1102452 -3.1763995 0.32244533
4.118154 -3.1937304 0.32085466
4.1738868 -3.2465847 0.30963546
4.2048683 -3.2813187 0.30339956
4.2225018 -3.3062482 0.29985118
4.2244782 -3.3195295 0.29945505
4.271255 -3.3665595 0.29003912
4.3078661 -3.4061668 0.28266984
4.3175464 -3.4255474 0.2807228
4.3462725 -3.4594846 0.27494121
4.3556776 -3.4788165 0.27304947
4.3556876 -3.490994 0.27304947
4.3447394 -3.4947357 0.27525568
4.3068275 -3.4775829 0.28289062
4.2537966 -3.4484954 0.29356933
4.1896791 -3.4104824 0.30648029
4.1644316 -3.4024701 0.31156528
4.1503229 -3.4030468 0.31440765
4.1528273 -3.4166126 0.31390536
4.1553345 -3.4301944 0.31340241
4.1499352 -3.4375272 0.31449127
4.4367018 1.5223823 0.24325919
4.4434428 1.5124797 0.24188352
4.4392595 1.4984823 0.24274057
4.4430814 1.4874592 0.24196148
4.4449997 1.4757184 0.24157143
4.4450097 1.4632741 0.24157143
4.4335928 1.4467146 0.24390674
4.4364538 1.4353212 0.24332404
4.4307647 1.4208806 0.24448872
4.4364734 1.4104809 0.24332404
4.4364834 1.3980606 0.24332404
4.4222736 1.3807185 0.24623013
4.4109731 1.3644549 0.24854147
4.3969269 1.3473194 0.25141418
4.3801861 1.3293526 0.25483739
4.3933463 1.3214948 0.25214994
4.4102607 1.3148102 0.24869519
4.3459215 1.2812711 0.26184589
4.3445911 1.2686669 0.26211977
4.331388 1.2522269 0.26481992
4.4058204 1.2639859 0.24961066
4.4239931 1.2574301 0.2458989
4.4187407 1.2433859 0.24697423
4.4066539 1.2272352 0.24944633
4.4437251 1.226378 0.24187243
4.4482102 1.2153115 0.24095786
4.4516373 1.2038982 0.24025953
4.4120612 1.1795074 0.24834925
4.371995 1.1551919 0.25653929
4.3554444 1.1380552 0.25992358
4.3335676 1.119451 0.26439631
4.3254261 1.1049545 0.26606202
4.3173156 1.0905126 0.26772141
4.2908573 1.0708957 0.27313036
4.264596 1.0514824 0.27849907
4.2507668 1.035684 0.28132701
4.2392836 1.0206108 0.28367561
4.26475 1.0157015 0.27847338
4.3055696 1.0148034 0.27013361
4.3576374 1.0166881 0.25949526
4.3500586 1.0024791 0.26104593
4.3199763 0.98241353 0.26719546
4.2787781 0.95963359 0.27561641
4.2304373 0.93525231 0.28549695
4.1840229 0.91163063 0.29498369
4.1576176 0.89328957 0.30038166
4.1597757 0.88218439 0.29994243
4.2105584 0.8829962 0.28956687
4.2578359 0.8826735 0.27990758
4.270143 0.87370265 0.27739459
4.246623 0.85617411 0.28220284
4.2221298 0.83854961 0.28720993
4.226573 0.82775629 0.28630388
4.2318912 0.81713808 0.28521913
4.2198215 0.8025651 0.28768742
4.1709962 0.77986562 0.29766667
4.1579108 0.76530719 0.3003425
4.1972346 0.76221251 0.29230875
4.1689835 0.7444005 0.29808354
4.1451383 0.72767961 0.30295813
4.1166472 0.71012139 0.3087821
4.0922394 0.69356477 0.31377161
4.0825624 0.68014002 0.31575084
4.0950336 0.671211 0.31320441
4.1413937 0.66891348 0.30373293
4.1585193 0.66065741 0.30023521
4.1866465 0.6544193 0.29448962
4.1606874 0.63778317 0.29979604
4.1563997 0.62533498 0.30067408
4.1571245 0.61383188 0.30052781
4.1748614 0.60540295 0.29690528
4.184154 0.59537041 0.29500842
4.2082248 0.58787727 0.29009163
4.2071347 0.57590795 0.2903164
4.2045798 0.56369638 0.29084033
4.2086196 0.55259991 0.29001677
4.2030621 0.53990555 0.29115427
4.1798639 0.52439618 0.29589641
4.1697693 0.51109409 0.29796106
4.1514997 0.49657562 0.30169612
4.1515093 0.48495504 0.30169612
4.1615343 0.47483823 0.29964954
4.1716075 0.46467254 0.297593
4.1977205 0.45676896 0.29225904
4.2226863 0.44855663 0.28715968
4.2278709 0.43745592 0.28610229
4.2382679 0.42703602 0.28397965
4.2330775 0.41447935 0.28504223
4.9009671 -0.0726294 0.148664
4.8645854 -0.086818971 0.15609944
4.8323479 -0.10076262 0.16268826
4.8188601 -0.11438718 0.16544616
4.7722154 -0.12808841 0.17497849
4.7340302 -0.14151333 0.18278223
4.7030067 -0.15473165 0.18912297
4.6626148 -0.16774061 0.19737756
4.6626248 -0.18079022 0.19737756
4.6626353 -0.19383982 0.19737756
4.6689553 -0.2069664 0.19608855
4.6879969 -0.22031912 0.1922003
4.6943855 -0.23355319 0.19089723
4.694396 -0.24669155 0.19089723
4.6944065 -0.25982994 0.19089723
4.6880388 -0.27280122 0.1922003
4.6564155 -0.28500462 0.19866323
4.6314249 -0.29724178 0.20377105
4.6067014 -0.30934823 0.2088244
4.5883336 -0.32155389 0.21257907
4.5883441 -0.33439529 0.21257907
4.5883541 -0.34723663 0.21257907
4.5883646 -0.36007801 0.21257907
4.5883746 -0.37291938 0.21257907
4.5883851 -0.38576072 0.21257907
4.5883951 -0.3986021 0.21257907
4.5884051 -0.41144347 0.21257907
4.5945253 -0.42465007 0.21133083
4.6094418 -0.43844128 0.20828545
4.6502748 -0.45401025 0.19994533
4.6999631 -0.47041142 0.18979615
4.7211952 -0.485071 0.18546057
4.7518578 -0.50054502 0.17919844
4.7696962 -0.51520872 0.17555612
4.7397561 -0.52618015 0.18167508
4.7138662 -0.5373168 0.18696642
4.6900783 -0.54848695 0.19182837
4.6946468 -0.56201267 0.19089723
4.704258 -0.57602048 0.18893588
4.7203569 -0.59068769 0.18564904
4.7444749 -0.60621607 0.18072402
4.7176123 -0.61683452 0.18621409
4.699266 -0.62816924 0.18996423
4.7213225 -0.64362532 0.18546039
4.7616644 -0.66116774 0.17722094
4.7792621 -0.6764307 0.17362809
4.8126006 -0.6935699 0.16681933
4.7992244 -0.70548868 0.16955417
4.8107052 -0.7202791 0.16721094
4.8193545 -0.73479021 0.16544616
4.819365 -0.74827719 0.16544616
4.8386846 -0.76421523 0.16150159
4.8435464 -0.77838576 0.16051054
4.8416152 -0.79168296 0.16090727
4.8406553 -0.8051008 0.16110551
4.8464942 -0.81945229 0.15991497
4.8788085 -0.83756769 0.15331566
4.9491258 -0.86132574 0.13895297
4.9552288 -0.87606823 0.13770854
4.8867378 -0.87970626 0.15170258
4.8321671 -0.88507855 0.16285282
4.7953243 -0.89289176 0.17038143
4.8110948 -0.90879679 0.16716206
4.8592553 -0.9299891 0.15732569
4.9126315 -0.95230281 0.14642394
4.9818778 -0.9775511 0.13228023
5.0047693 -0.99535716 0.12760615
5.0229926 -1.0124898 0.12388575
4.986711 -1.0202128 0.13129973
4.9580626 -1.0290861 0.13715434
4.9297419 -1.037858 0.14294207
4.9297528 -1.0516533 0.14294207
5.0149546 -1.0812684 0.12553906
5.2008877 -1.1303477 0.087558866
5.2940397 -1.1627188 0.068532109
5.3404675 -1.1865425 0.059050322
5.33639 -1.2006817 0.05988574
5.4064708 -1.2296067 0.045572042
5.6782818 -1.2997713 -0.0099505186
5.7378197 -1.3278806 -0.022110343
5.8624139 -1.3698601 -0.0475595
5.9721932 -1.4094124 -0.06998229
6.02876 -1.4382087 -0.081534743
6.0664072 -1.4632257 -0.089222431
6.1181479 -1.4915438 -0.099789023
6.1976933 -1.5263257 -0.11603546
6.2785177 -1.5618404 -0.13254297
6.3813634 -1.6028206 -0.15354884
6.5033531 -1.6487885 -0.17846525
6.6228261 -1.6948516 -0.20286739
6.6879325 -1.7287495 -0.21616387
6.7647338 -1.7658052 -0.23184931
6.7879395 -1.7903388 -0.23658645
6.8472142 -1.8238193 -0.24869156
6.8588948 -1.8458637 -0.25107431
6.8699627 -1.8678201 -0.25333214
6.8889165 -1.8918324 -0.2572006
6.8807096 -1.909007 -0.25552118
6.8930659 -1.9314502 -0.2580421
6.9771724 -1.9727061 -0.2752192
7.1330752 -2.0333896 -0.30706203
7.1450467 -2.0565395 -0.30950415
7.1421051 -2.0757351 -0.3089
7.1833215 -2.1069446 -0.31731606
7.1876125 -2.128221 -0.31818914
7.2480102 -2.1651206 -0.33052313
7.1805229 -2.1664455 -0.31673455
7.112884 -2.1673496 -0.30291498
6.9981985 -2.1543999 -0.27948546
6.8604221 -2.134131 -0.25133967
6.8242617 -2.1427634 -0.24395025
6.8069715 -2.1567566 -0.24041533
6.8475041 -2.1878617 -0.24869156
6.9200945 -2.2288237 -0.26351583
7.0050564 -2.2739429 -0.28086722
7.0555363 -2.3089859 -0.29117525
7.0720758 -2.3338304 -0.29455042
7.0576286 -2.3491123 -0.29159617
7.0576444 -2.3688602 -0.29159617
7.0597229 -2.3892622 -0.29201746
7.1779022 -2.4468265 -0.31615353
7.325191 -2.5144479 -0.34623528
7.3766513 -2.5516934 -0.3567431
7.3222632 -2.5544686 -0.34563053
7.2854762 -2.5627682 -0.33811331
7.2353082 -2.5663934 -0.32786262
7.1751556 -2.5663748 -0.31557286
7.1666579 -2.5835602 -0.31383383
7.1454768 -2.5963557 -0.30950415
7.1055613 -2.6025662 -0.30134821
7.1307449 -2.6312048 -0.30648875
7.086834 -2.6357491 -0.29751658
7.0619907 -2.6467891 -0.29243898
7.0148449 -2.6497426 -0.28280592
6.951282 -2.6465356 -0.26981986
6.902638 -2.6483736 -0.25988102
6.9503126 -2.68507 -0.26961553
7.064528 -2.7464898 -0.29294121
7.2234645 -2.8251102 -0.32540095
7.2967224 -2.8726501 -0.34036052
7.3433137 -2.9105749 -0.34987354
7.3747115 -2.9430065 -0.35628307
7.296771 -2.933898 -0.34036052
7.2204614 -2.9249799 -0.32477105
7.1437945 -2.9154968 -0.30910861
7.1918349 -2.9542098 -0.31891751
7.2410688 -2.9936604 -0.32897007
7.2858496 -3.0316253 -0.33811331
7.1954532 -3.0159981 -0.31964684
7.1542749 -3.0196071 -0.31123304
7.0871344 -3.0124993 -0.29751658
7.0437593 -3.0146818 -0.28865421
7.0643711 -3.0428231 -0.29286075
7.0871816 -3.0719864 -0.29751658
7.1311264 -3.1100497 -0.30648875
7.1756191 -3.1485879 -0.31557286
7.1905842 -3.1749532 -0.31862617
7.2185292 -3.2068987 -0.32433033
7.099525 -3.1763594 -0.30002141
7.1330767 -3.2106118 -0.30687094
7.1944556 -3.2570698 -0.31940365
7.1679087 -3.2656527 -0.31397855
7.2399321 -3.3172076 -0.32868528
7.2177014 -3.3276696 -0.32414162
7.3125887 -3.3898969 -0.34351814
7.3126054 -3.410356 -0.34351814
7.2489953 -3.4022689 -0.33052313
7.1651707 -3.3847003 -0.31339967
7.0625572 -3.3581281 -0.29243898
7.0770545 -3.384506 -0.29539657
7.1020331 -3.4157851 -0.30049491
7.1609874 -3.4629216 -0.31253231
7.205853 -3.5038307 -0.32169211
7.210887 -3.5263405 -0.32271695
7.0155482 -3.5329781 -0.28280592
7.015563 -3.5526052 -0.28280592
7.0442142 -3.5862014 -0.28865421
7.04423 -3.6059089 -0.28865421
7.058651 -3.6327238 -0.29159617
7.0586667 -3.6524718 -0.29159617
7.0648746 -3.6753094 -0.29286075
7.0873899 -3.7063644 -0.29745591
7.1776381 -3.7717221 -0.31588387
7.2886972 -3.8481441 -0.33856225
7.2032452 -3.8249314 -0.32110715
7.1389875 -3.8121128 -0.30798078
7.1581078 -3.8419387 -0.31188226
7.1627216 -3.8643486 -0.31282127
7.1940637 -3.9610727 -0.31920898
7.2925096 -4.033618 -0.339311
7.2925258 -4.0540195 -0.339311
7.3200359 -4.0892162 -0.34492576
7.2722039 -4.2464948 -0.33512759
7.2488041 -4.2535834 -0.33034551
7.2540431 -4.2768331 -0.3314122
7.267149 -4.3046098 -0.33408535
7.2000375 -4.2863755 -0.32037675
7.2519145 -4.3364558 -0.33096766
7.2246103 -4.3408952 -0.32538831
7.1616735 -4.3244119 -0.31253231
7.1320953 -4.3271141 -0.30648875
7.1125183 -4.335536 -0.30248749
6.4402471 -4.0119529 -0.16518748
6.3455524 -3.9729109 -0.14584661
6.1220965 -3.8554068 -0.10021126
6.0876651 -3.8515885 -0.093176961
6.0274439 -3.8318248 -0.08087647
5.9211168 -3.7834311 -0.059160352
5.8729205 -3.770277 -0.049315572
5.8311262 -3.7608171 -0.040777922
5.8311391 -3.7771292 -0.040777922
5.831152 -3.7934411 -0.040777922
5.8311648 -3.8097532 -0.040777922
5.8017769 -3.8075304 -0.034774065
5.7630463 -3.7992275 -0.026862264
5.7059054 -3.7789984 -0.015190959
5.6248984 -3.7432044 0.0013538599
5.576879 -3.728122 0.011162281
5.4994698 -3.6938324 0.026972294
5.4217463 -3.6589067 0.042846322
5.2501693 -3.562542 0.077885866
5.1841035 -3.5340943 0.091379285
5.170434 -3.5396271 0.094172955
5.176722 -3.558223 0.092891216
5.2016196 -3.5891578 0.087809443
5.2057409 -3.6064367 0.08697021
5.1990318 -3.6165178 0.088342547
4.7947268 -3.4273725 0.1709159
4.7858753 -3.4347019 0.17272568
4.7914214 -3.4519036 0.17159534
4.7914319 -3.4653063 0.17159534
4.7656932 -3.4608207 0.17685336
4.6879683 -3.4199297 0.19272673
4.602181 -3.3729579 0.21024632
4.5509987 -3.3498373 0.22069979
4.5098166 -3.3334904 0.22911102
4.4875507 -3.330318 0.23365974
4.4603105 -3.3234823 0.23922408
4.433589 -3.3168645 0.24468249
4.4066505 -3.3099418 0.25018525
4.355041 -3.2851086 0.26072556
4.3121548 -3.2662904 0.2694847
4.2246194 -3.2148407 0.28736085
4.160862 -3.1802182 0.30038154
4.1162214 -3.1592155 0.30949861
4.0904527 -3.1518114 0.31476235
4.0759735 -3.1525803 0.31772071
4.0894322 -3.1739268 0.31497437
4.1239853 -3.2110052 0.30792087
4.137713 -3.2327619 0.30511963
4.1561561 -3.2581208 0.30135572
4.1760001 -3.2846351 0.29730552
4.1975627 -3.3125546 0.29290462
4.2161245 -3.3383248 0.2891165
4.2833886 -3.4011652 0.27538389
4.3062954 -3.4305902 0.2707085
4.3155332 -3.4496908 0.26882428
4.3217168 -3.4664996 0.26756364
4.2971358 -3.4596486 0.27258462
4.2361345 -3.4245064 0.28504223
4.1884227 -3.399334 0.2947861
4.1624618 -3.3908291 0.30008894
4.1646233 -3.4041529 0.29964954
4.1646323 -3.4158015 0.29964954
4.1696715 -3.4314086 0.29862255
4.1764059 -3.4483826 0.29724944
4.4736309 1.5120279 0.22293341
4.4813943 1.5023563 0.22132659
4.4697843 1.4855524 0.22373462
4.4543943 1.4674412 0.22692585
4.4315023 1.446713 0.23167175
4.4286661 1.4332833 0.2322616
4.4173279 1.4168535 0.23461324
4.4230042 1.4064753 0.23343897
4.4173474 1.3921087 0.23461324
4.3976374 1.3729072 0.23869979
4.3920445 1.3586655 0.23986065
4.37573 1.3408022 0.24324352
4.3528528 1.3208132 0.2479862
4.3745599 1.315892 0.24348998
4.3953371 1.3105402 0.23918658
4.3329544 1.2776719 0.25211567
4.3391962 1.267572 0.25082427
4.3244333 1.2506341 0.25388539
4.361958 1.2505677 0.24611139
4.3769984 1.2431347 0.24299681
4.3690848 1.2283758 0.24463874
4.3627758 1.2141633 0.24594802
4.4226394 1.2204914 0.23354524
4.4391623 1.2131754 0.2301234
4.459404 1.2068983 0.22593099
4.4326596 1.1863426 0.231475
4.3978038 1.1635143 0.23869979
4.3810492 1.1462368 0.24217355
4.3589048 1.1274737 0.24676436
4.3397117 1.1096916 0.25074345
4.3315439 1.0951862 0.25243801
4.3118205 1.0774375 0.25652689
4.292913 1.0600288 0.26044691
4.2687521 1.0412606 0.26545537
4.2522159 1.024734 0.26888376
4.247735 1.0115969 0.26981425
4.2695355 1.0055982 0.26529884
4.3220963 1.0077168 0.25440961
4.3179302 0.99450505 0.25527495
4.2964177 0.97676754 0.25973439
4.2609057 0.95551825 0.26709497
4.2166243 0.93221724 0.27627254
4.180119 0.91113865 0.28383869
4.1556573 0.89328802 0.28890932
4.157815 0.88218272 0.28846413
4.2034431 0.88173521 0.27901161
4.2513309 0.88158059 0.26909077
4.2858143 0.87794256 0.26194745
4.2641182 0.86079431 0.26644504
4.2446308 0.84428501 0.27048504
4.2263064 0.82815421 0.27428377
4.2229891 0.81555712 0.27497321
4.2163591 0.80223072 0.27634895
4.174077 0.78098977 0.2851119
4.1669998 0.76773906 0.28658015
4.1967154 0.7625283 0.28042495
4.1595974 0.7428062 0.28811783
4.1417632 0.72737694 0.29181516
4.1098022 0.70909476 0.29843938
4.0854645 0.69256377 0.30348408
4.0758152 0.67915726 0.30548543
4.0937972 0.67134869 0.30176139
4.1644378 0.67385697 0.28712648
4.1766987 0.66458356 0.28458804
4.1868505 0.65483642 0.28248644
4.1759944 0.6410526 0.28473777
4.1781716 0.62976241 0.28428841
4.1854262 0.61939311 0.28278732
4.2085443 0.61185527 0.27799916
4.2076983 0.59991658 0.27817649
4.2154236 0.58948648 0.27657783
4.2051516 0.5759064 0.2787081
4.1923795 0.56195927 0.28135633
4.1862082 0.54918647 0.28263688
4.185782 0.53739154 0.28272712
4.1706748 0.52322936 0.28585917
4.1627727 0.51029456 0.28749841
4.1545424 0.49735305 0.28920567
4.1445646 0.48419026 0.29127485
4.1495614 0.47333285 0.29024148
4.1545701 0.46244922 0.28920567
4.1754208 0.4538286 0.28488749
4.2052546 0.44636521 0.2787081
4.2155457 0.43601802 0.27657783
4.23627 0.42703447 0.27228582
4.2414904 0.41586635 0.27120626
4.2677469 0.40741661 0.26576817
4.8847799 -0.072850414 0.13801789
4.8508949 -0.086968899 0.14504015
4.8300705 -0.10076443 0.1493566
4.8132281 -0.11441384 0.15284801
4.7754698 -0.12806493 0.16067255
4.7213626 -0.14153382 0.17188406
4.6887693 -0.1547213 0.17863858
4.6520348 -0.16771045 0.18625087
4.6478653 -0.18070896 0.1871168
4.6541481 -0.19378239 0.18581736
4.6635995 -0.20692964 0.18386161
4.6794291 -0.22022547 0.18058437
4.692173 -0.23355494 0.17794645
4.6921835 -0.24669331 0.17794645
4.692194 -0.2598317 0.17794645
4.6794705 -0.27263635 0.18058437
4.6479483 -0.28482443 0.1871168
4.6230369 -0.29704612 0.1922797
4.5983906 -0.30913752 0.19738752
4.5861712 -0.32155561 0.19992107
4.5861816 -0.33439702 0.19992107
4.5861917 -0.34723836 0.19992107
4.5862021 -0.36007974 0.19992107
4.5862122 -0.37292111 0.19992107
4.5862226 -0.38576245 0.19992107
4.5862327 -0.39860383 0.19992107
4.5862427 -0.4114452 0.19992107
4.5862532 -0.42428657 0.19992107
4.6011229 -0.4380582 0.19684279
4.6418271 -0.45360285 0.18841267
4.688169 -0.46975982 0.17881483
4.7060919 -0.48415834 0.17510426
4.7152944 -0.49801353 0.17320007
4.681776 -0.50864756 0.18014568
4.6914911 -0.52252686 0.17813534
4.6924138 -0.53573763 0.17794645
4.6688304 -0.54687047 0.18283397
4.6733594 -0.56033957 0.18189788
4.682888 -0.57428688 0.17992616
4.6988487 -0.58888829 0.17662215
4.7199879 -0.60407722 0.17224526
4.6943011 -0.61474854 0.17756844
4.6752219 -0.62594867 0.18152291
4.6806707 -0.63960761 0.18039626
4.739799 -0.65906215 0.16815013
4.7770095 -0.67643249 0.16044414
4.8170509 -0.69433093 0.15215176
4.7969627 -0.70549047 0.15631521
4.7969732 -0.71892118 0.15631521
4.8193264 -0.73506439 0.15168703
4.8094177 -0.74732554 0.15374196
4.8325319 -0.76372528 0.14895606
4.8568463 -0.78041005 0.14392161
4.8666472 -0.79530644 0.14189363
4.8656764 -0.80879927 0.14209688
4.8715787 -0.82323635 0.14087665
4.8903375 -0.83951926 0.13699305
4.9538989 -0.86234927 0.12382901
4.9692039 -0.87846112 0.1206609
4.9089313 -0.88336766 0.13314831
4.8242602 -0.88422358 0.15068954
4.7906871 -0.89252508 0.15764618
4.8064342 -0.9084208 0.15438658
4.8798714 -0.93366933 0.13917696
4.9384389 -0.95689952 0.12704742
4.9843278 -0.97835028 0.11754429
5.0024109 -0.99535906 0.11380076
5.0133281 -1.0112381 0.11154163
4.9843612 -1.0202147 0.11754429
4.9557261 -1.029088 0.12347794
4.9274187 -1.0378599 0.12934375
4.8994327 -1.0465322 0.13514292
4.9385271 -1.0675101 0.12704742
5.0948539 -1.1108153 0.094668746
5.1946139 -1.1441698 0.074007034
5.272903 -1.1739131 0.057793021
5.3146982 -1.1969062 0.049138188
5.3722606 -1.2232831 0.037217498
5.632823 -1.2911065 -0.016751528
5.7478585 -1.3304999 -0.040576696
5.9068336 -1.3796848 -0.073503256
5.9998941 -1.4158527 -0.092776299
6.0552802 -1.4444876 -0.10424578
6.0956955 -1.4701904 -0.11261427
6.1558018 -1.5004388 -0.12506139
6.2133708 -1.5304601 -0.13698304
6.2943726 -1.5660752 -0.15375793
6.3842592 -1.6041675 -0.17237329
6.4941697 -1.6473801 -0.19513607
6.5916939 -1.6883171 -0.21533322
6.6333594 -1.7166078 -0.22396028
6.6829457 -1.7470247 -0.23422801
6.7056026 -1.7712082 -0.23891771
6.7945561 -1.8117325 -0.25733948
6.7882047 -1.8291792 -0.25602067
6.7894921 -1.8485013 -0.25628424
6.8375731 -1.8796679 -0.26623988
6.896174 -1.9137942 -0.27837443
6.9424553 -1.9450628 -0.28795731
6.9920592 -1.977459 -0.29822838
7.1129117 -2.0289538 -0.32325661
7.078176 -2.0395892 -0.31605875
7.0752888 -2.0586216 -0.31545746
7.1353807 -2.0948029 -0.32790053
7.1248693 -2.1118796 -0.32572019
7.2035308 -2.1537013 -0.34200943
7.116601 -2.1494396 -0.32400107
6.9942093 -2.134629 -0.29864776
6.8989701 -2.1269138 -0.27891862
6.8210306 -2.1236708 -0.26277268
6.7903552 -2.1337996 -0.25641596
6.77703 -2.148874 -0.25365293
6.8037791 -2.175806 -0.25919008
6.8346066 -2.2041135 -0.26557183
6.9201536 -2.2491918 -0.28328693
6.9577703 -2.2800756 -0.29107487
6.978179 -2.3058541 -0.2952987
6.9849238 -2.3274865 -0.29669237
6.9970837 -2.3508599 -0.29920769
6.9410696 -2.3526673 -0.28760302
7.0307794 -2.4008124 -0.30618
7.1994925 -2.4749727 -0.34111965
7.2492194 -2.5113196 -0.35141563
7.1966634 -2.5143409 -0.34052718
7.1611085 -2.5227015 -0.33316004
7.1126103 -2.5265379 -0.32311201
7.0544448 -2.5268457 -0.31106198
7.046227 -2.5437965 -0.30935681
7.0462427 -2.5635214 -0.30935681
7.0380435 -2.5804093 -0.30765545
7.0689645 -2.6108699 -0.31405616
7.0401263 -2.6205332 -0.30808032
7.0013595 -2.6265223 -0.30004799
6.9549947 -2.629586 -0.29044211
6.892478 -2.6265862 -0.27749121
6.8446283 -2.6285477 -0.26757812
6.7983971 -2.6308315 -0.2579999
6.7877946 -2.6459579 -0.25580096
6.8647809 -2.6934779 -0.27174222
7.0809512 -2.7933869 -0.31650925
7.162426 -2.8438456 -0.33337986
7.2245846 -2.8874412 -0.34624994
7.1720304 -2.8875985 -0.33536255
7.1349626 -2.8934164 -0.32768226
7.0624652 -2.885304 -0.31266439
7.032146 -2.89324 -0.30638194
7.059916 -2.9238293 -0.31212986
7.0941529 -2.9571326 -0.31921721
7.0692477 -2.9670596 -0.31405616
7.0342565 -2.9728 -0.30680609
6.9975829 -2.9776642 -0.29920769
6.9693251 -2.9857478 -0.29335225
7.0118365 -3.0226667 -0.30215311
7.0548692 -3.0600381 -0.31106198
7.11307 -3.1039493 -0.32311201
7.14254 -3.1361742 -0.32921183
7.1425557 -3.1561675 -0.32921183
7.1110234 -3.1627941 -0.32267833
6.9798894 -3.1267667 -0.29551756
6.9972401 -3.1537459 -0.29910767
7.0325756 -3.1885931 -0.30642223
6.9953403 -3.1920791 -0.29870772
6.9782233 -3.2041612 -0.29515958
6.998075 -3.2324314 -0.29926753
7.0860949 -3.2910292 -0.31749272
7.0944376 -3.3145783 -0.31921721
7.1185021 -3.3452311 -0.32419765
7.0113926 -3.316772 -0.30201256
6.9575415 -3.3119173 -0.29085732
6.9555531 -3.330476 -0.29044211
6.9766674 -3.3596516 -0.29481161
6.9924107 -3.3864596 -0.29806864
7.073175 -3.4436328 -0.31479108
7.0704298 -3.4621375 -0.31421924
6.9697447 -3.5124774 -0.29335225
6.9744563 -3.534265 -0.29432476
6.9697757 -3.5514946 -0.29335225
6.955739 -3.564106 -0.29044211
6.94875 -3.5801175 -0.28899169
6.8843884 -3.5676084 -0.27566004
6.8933864 -3.5913622 -0.2775203
7.0073142 -3.6678436 -0.30110991
7.104311 -3.7364149 -0.32119298
7.1754899 -3.7924235 -0.33592987
7.1234002 -3.785912 -0.32513964
7.0892634 -3.7883224 -0.31806719
7.0730157 -3.7997725 -0.31469929
7.0726857 -3.8193903 -0.31462777
6.738718 -3.8912127 -0.24542844
7.1730695 -4.1925588 -0.33536255
7.1404271 -4.1941385 -0.32859969
7.1055703 -4.1942749 -0.32137847
7.0993199 -4.210578 -0.320081
7.0920401 -4.226254 -0.31857014
7.1360598 -4.2715187 -0.32768226
7.1360755 -4.2914915 -0.32768226
7.1385522 -4.3128986 -0.32819176
7.1484289 -4.3386559 -0.33023345
7.1919637 -4.384285 -0.33924496
6.1820879 -3.8934822 -0.13011229
6.1315808 -3.8800509 -0.11965096
6.0598025 -3.8533373 -0.10478532
5.9183273 -3.7834332 -0.075487614
5.8701539 -3.7702792 -0.065509915
5.8283792 -3.7608192 -0.05685699
5.828392 -3.7771313 -0.05685699
5.8284049 -3.7934432 -0.05685699
5.8284183 -3.8097553 -0.05685699
5.8088064 -3.8136899 -0.052793503
5.7685866 -3.8044591 -0.0444628
5.6813064 -3.765058 -0.026387572
5.6052866 -3.7323661 -0.010644197
5.5562992 -3.7166004 -0.00049817562
5.4968791 -3.6938345 0.011808038
5.4350448 -3.669173 0.024614096
5.2933145 -3.5922096 0.053963423
5.2010007 -3.5467269 0.073080301
5.1445155 -3.5242274 0.084778428
5.1292329 -3.5285501 0.087945342
5.1449037 -3.5532639 0.084702849
5.14784 -3.5696051 0.084097266
5.1144233 -3.5617132 0.091018796
4.7528505 -3.3869872 0.16589624
4.7791929 -3.4182956 0.16044414
4.7858319 -3.4362221 0.15907162
4.812542 -3.4680235 0.15354347
4.8293915 -3.4931483 0.1500569
4.8108859 -3.4937942 0.15389079
4.7113509 -3.4377902 0.17450202
4.6278634 -3.3924727 0.19179046
4.5626025 -3.3595097 0.20530492
4.5224624 -3.3439226 0.21361816
4.4912748 -3.3344588 0.22007757
4.3404741 -3.2760963 0.25130898
4.3101239 -3.2662921 0.25759512
4.2381883 -3.226135 0.27249122
4.179049 -3.1948993 0.28473777
4.1142826 -3.1592171 0.29814935
4.087142 -3.1507971 0.30377066
4.0692496 -3.1490412 0.30747718
4.0764685 -3.1657631 0.30598426
4.086132 -3.18434 0.30398536
4.0909858 -3.1993859 0.30298239
4.1039691 -3.2205417 0.30029607
4.1251202 -3.2479036 0.29591876
4.1442389 -3.2738514 0.29196239
4.1769743 -3.3102088 0.28518665
4.1936622 -3.334563 0.28173339
4.215838 -3.3631935 0.27714407
4.2348533 -3.3895299 0.27320898
4.2014709 -3.3757436 0.28012246
4.1743736 -3.3666136 0.28573471
4.1643767 -3.3705568 0.28780639
4.1604915 -3.3791881 0.2886126
4.1576366 -3.3885994 0.28920567
4.1727285 -3.4120245 0.28608298
4.1930184 -3.4396124 0.28188413
4.1930275 -3.4513459 0.28188413
4.2015457 -3.4698024 0.28012258
4.4766941 1.5014006 0.20949721
4.4612494 1.4831982 0.212744
4.448462 1.4660475 0.2154327
4.4332113 1.4480807 0.21863866
4.4425559 1.4389966 0.21667755
4.4265871 1.4208773 0.22003448
4.4282217 1.4090453 0.21969312
4.4152641 1.392107 0.22241747
4.3899632 1.3709654 0.2277348
4.3843875 1.3567444 0.22890824
4.3610148 1.3364884 0.2338205
4.3380208 1.3164912 0.2386533
4.3788462 1.318019 0.23007852
4.3835773 1.3073183 0.22908664
4.3236656 1.2752819 0.24167514
4.309258 1.2584542 0.24470389
4.2901082 1.2401707 0.24872893
4.321629 1.2382717 0.24210906
4.3309488 1.2291268 0.24015313
4.304244 1.2085587 0.24576545
4.3263083 1.203397 0.24113208
4.4148903 1.218734 0.222525
4.4481139 1.216567 0.2155475
4.4804811 1.213953 0.20875001
4.4534707 1.1932486 0.21442622
4.4267845 1.1727924 0.22003448
4.409801 1.1553577 0.22360444
4.3901496 1.1372362 0.2277348
4.3754287 1.1206568 0.23082936
4.3577867 1.1033198 0.23453754
4.349154 1.0886476 0.23635316
4.3468122 1.0757979 0.23684704
4.322031 1.0566965 0.24205494
4.2854443 1.0344709 0.24974298
4.2675123 1.0175543 0.25351191
4.2834344 1.0099055 0.25016916
4.3231544 1.008545 0.24182707
4.3012738 0.99062645 0.24642569
4.2791567 0.97276878 0.25107372
4.2528892 0.95395744 0.25659382
4.2183199 0.93316185 0.26385784
4.183219 0.91242504 0.27123338
4.15871 0.89454544 0.276384
4.1558537 0.88218117 0.27698582
4.1767287 0.8756603 0.27260268
4.2050271 0.87082469 0.26666009
4.2696409 0.87454498 0.25308883
4.2560921 0.85936606 0.25593692
4.2759666 0.8520962 0.251764
4.2653918 0.83766437 0.25398743
4.2601285 0.824507 0.25509501
4.2391782 0.80783451 0.259498
4.1898608 0.78494942 0.26985979
4.1707954 0.76900685 0.27386665
4.1860018 0.76062667 0.27067435
4.166492 0.74470651 0.27477443
4.1376796 0.72692394 0.28082889
4.1022758 0.70792449 0.28826779
4.0780158 0.69142282 0.2933659
4.0690832 0.67817676 0.29524416
4.0863223 0.67023432 0.29162478
4.1624737 0.67385542 0.27563035
4.1863194 0.66684353 0.27062333
4.2053008 0.65876281 0.2666381
4.2056766 0.64704967 0.26656109
4.2145023 0.63691211 0.26470917
4.2159843 0.62537467 0.26439983
4.2263331 0.61543477 0.26222789
4.2341309 0.60498202 0.26059192
4.236743 0.59357548 0.26004529
4.2315502 0.58080661 0.26113796
4.210146 0.56531227 0.26563609
4.1800051 0.54847825 0.27196932
4.1827197 0.53721118 0.27140099
4.1712308 0.52363515 0.27381623
4.1683574 0.51149082 0.27442175
4.1626139 0.49891511 0.27563024
4.1475954 0.48495188 0.27878684
4.1476045 0.47333124 0.27878684
4.1526108 0.46244767 0.2777372
4.1676846 0.45299265 0.27457297
4.1828671 0.44346866 0.27138573
4.1930542 0.43316481 0.26924795
4.214303 0.42431149 0.2647866
4.2464542 0.41679427 0.25803518
4.2685518 0.40778312 0.25339568
4.5193529 0.36457744 0.20072788
4.8686843 -0.073070176 0.12743199
4.8486075 -0.086970724 0.13165104
4.8277931 -0.10076624 0.13602495
4.8109584 -0.11441565 0.13956285
4.7886906 -0.12799563 0.14424205
4.6519432 -0.18075216 0.17297149
4.6582403 -0.19384332 0.17165112
4.6677122 -0.20700848 0.16966403
4.6772223 -0.22022723 0.16766876
4.6899605 -0.23355672 0.16499567
4.689971 -0.24669507 0.16499567
4.6899815 -0.25983346 0.16499567
4.68362 -0.27280474 0.16633397
4.6520262 -0.2850081 0.17297149
4.6270595 -0.29724526 0.17821723
4.6023588 -0.30935168 0.18340701
4.5840087 -0.32155734 0.18726307
4.5840192 -0.33439875 0.18726307
4.5840292 -0.34724009 0.18726307
4.5840397 -0.36008146 0.18726307
4.5840497 -0.37292284 0.18726307
4.5840602 -0.38576418 0.18726307
4.5840702 -0.39860556 0.18726307
4.5840802 -0.41144693 0.18726307
4.5780025 -0.42392403 0.18854165
4.5867147 -0.43729341 0.18671405
4.6271834 -0.45278955 0.17821723
4.6669273 -0.46846291 0.16987252
4.6846957 -0.48279777 0.16614306
4.7038836 -0.49733689 0.16211563
4.6883574 -0.509323 0.16537845
4.6543069 -0.51975036 0.17253178
4.6438675 -0.53192878 0.17472637
4.6397109 -0.54458296 0.17560136
4.6576324 -0.55915332 0.17183995
4.6648455 -0.57285333 0.17032719
4.6711769 -0.58651125 0.16899979
4.6811547 -0.60055554 0.16690648
4.6648765 -0.61205506 0.17032719
4.6603823 -0.62466353 0.17127329
4.6820951 -0.63998938 0.16671562
4.7440829 -0.65976441 0.15369976
4.7747574 -0.67643428 0.14726019
4.8013678 -0.6928165 0.14167392
4.7738338 -0.70307469 0.14745855
4.7463031 -0.71317899 0.15324253
4.7840853 -0.73106182 0.14531016
4.771843 -0.74294031 0.1478833
4.770102 -0.75608432 0.14825118
4.7899961 -0.77202809 0.14407563
4.8419051 -0.79233038 0.13317668
4.8692708 -0.8095988 0.12743199
4.8939691 -0.82665145 0.12224758
4.9159126 -0.84345388 0.11764169
4.9678721 -0.86469746 0.10673225
4.9832711 -0.88086987 0.10350084
4.9384127 -0.88812196 0.1129235
4.8419805 -0.88726997 0.13317668
4.8120604 -0.89619136 0.13946223
4.8260245 -0.9118731 0.13653195
4.8973665 -0.93685186 0.12155235
4.9452143 -0.95838952 0.1115067
4.9819779 -0.97835219 0.10378873
4.9855909 -0.99291599 0.10303235
4.9819999 -1.0062617 0.10378873
4.9533787 -1.0152153 0.10980153
4.9321299 -1.025317 0.11426592
4.9110641 -1.0353323 0.11869204
4.9050856 -1.0479918 0.11994982
4.9619098 -1.072291 0.10801923
5.0738935 -1.1073159 0.084505439
5.1566634 -1.137374 0.067126632
5.2225137 -1.1646088 0.053300738
5.2555075 -1.1857369 0.046374798
5.3211842 -1.2135824 0.032585502
5.5032072 -1.2653766 -0.0056355
5.6072149 -1.3021598 -0.027473807
5.9139705 -1.3817533 -0.091887474
6.0193453 -1.4205577 -0.11401236
6.0989676 -1.4544443 -0.13072968
6.1675615 -1.4863871 -0.14513087
6.2008533 -1.5109661 -0.15211904
6.245801 -1.5383222 -0.16155457
6.3260365 -1.5738724 -0.1784004
6.4168792 -1.6122895 -0.19747329
6.4928541 -1.6477852 -0.21342409
6.5670724 -1.6832964 -0.22900605
6.5922003 -1.7076241 -0.23427951
6.6157074 -1.7317047 -0.23921263
6.6575751 -1.7603581 -0.2480011
6.7573366 -1.8034118 -0.26894665
6.7188926 -1.8128201 -0.2608707
6.6940594 -1.8254197 -0.25565279
6.7389336 -1.8555223 -0.2650727
6.8421154 -1.9007958 -0.28673601
6.9133415 -1.9383808 -0.30168927
6.9887629 -1.9774616 -0.31752324
7.1221471 -2.0322833 -0.34552824
7.0077343 -2.0216689 -0.32150018
7.0096488 -2.0418091 -0.32189906
7.0984545 -2.0856535 -0.34054327
7.0679808 -2.0971358 -0.33414114
6.9891267 -2.0949833 -0.31757987
6.9734864 -2.1101577 -0.31429255
6.902276 -2.1094689 -0.29933655
6.7915802 -2.0970612 -0.27608955
6.7491798 -2.1038041 -0.26718318
6.7586451 -2.1254694 -0.26916754
6.7833548 -2.1516855 -0.27435279
6.8140116 -2.179812 -0.28078687
6.8381591 -2.2061529 -0.2858541
6.8281789 -2.2222712 -0.2837553
6.8039956 -2.2339835 -0.27867413
6.884367 -2.2778771 -0.29554701
6.8527822 -2.2873025 -0.2889117
6.7910953 -2.2870786 -0.2759558
6.7714224 -2.2998476 -0.27182198
6.8234897 -2.3354843 -0.28275144
6.956109 -2.3974378 -0.3105948
7.0372534 -2.4433587 -0.32762945
7.0945973 -2.4819112 -0.33966696
7.0655375 -2.4921424 -0.3335619
7.0223827 -2.4974995 -0.3244971
6.9797516 -2.5027914 -0.31554282
6.9656672 -2.5175464 -0.31258214
6.9576511 -2.5343027 -0.31089568
6.9737482 -2.5593448 -0.3142724
6.965714 -2.576072 -0.31258214
6.9376984 -2.5857396 -0.30669653
6.9000301 -2.5918336 -0.29878414
6.868628 -2.599952 -0.29218757
6.8210859 -2.6020923 -0.28220212
6.8009205 -2.6138844 -0.27796495
6.7742128 -2.6231747 -0.27235389
6.7120619 -2.6192765 -0.25930119
6.7642088 -2.6573989 -0.2702471
6.883832 -2.721015 -0.29536057
6.976943 -2.7753246 -0.31490731
7.0689092 -2.829721 -0.33421361
7.0328803 -2.835753 -0.32664549
7.0298233 -2.8542671 -0.32600033
6.9835663 -2.8560247 -0.31628478
6.9579148 -2.8655648 -0.31089568
6.9830928 -2.894942 -0.3161788
6.9760447 -2.9117022 -0.31469584
6.9659934 -2.9272251 -0.31258214
6.9349866 -2.934279 -0.30606866
6.9032674 -2.9408708 -0.29940569
6.8944097 -2.9565914 -0.29754269
6.9380236 -2.9937694 -0.30669653
6.9660711 -3.0247674 -0.31258214
7.037169 -3.0738096 -0.32750642
7.0310345 -3.0909448 -0.32621515
6.9842582 -3.0909319 -0.31639087
6.9102926 -3.0791318 -0.30085802
6.7968011 -3.0500531 -0.27702653
6.8025622 -3.0715551 -0.27823305
6.8327456 -3.1036465 -0.28456712
6.8301835 -3.1216595 -0.28402579
6.805439 -3.129946 -0.27882743
6.8230424 -3.156755 -0.28252017
6.9362149 -3.2260451 -0.30627787
6.944212 -3.2490315 -0.30795372
7.0138416 -3.2997401 -0.32256925
6.9196911 -3.2768304 -0.30279899
6.871119 -3.2741172 -0.29259801
6.8691797 -3.2924647 -0.29218757
6.8487306 -3.3022823 -0.28789103
6.8594499 -3.3264182 -0.29013836
6.9323545 -3.3795846 -0.3054415
6.9614258 -3.4126151 -0.31154168
6.8967328 -3.401602 -0.29795623
6.900692 -3.4227853 -0.29878414
6.8420277 -3.4141157 -0.28646457
6.8693023 -3.4463565 -0.29218757
6.8830285 -3.4722109 -0.29506624
6.8922157 -3.4959383 -0.29699171
6.869348 -3.504066 -0.29218757
6.842104 -3.5099163 -0.28646457
6.8285708 -3.5223851 -0.28362012
6.7882595 -3.5214789 -0.27515376
6.8093381 -3.5510087 -0.27957606
6.8877192 -3.609437 -0.29602838
6.9605575 -3.6655047 -0.31131697
7.0253973 -3.7179184 -0.32492626
7.066546 -3.7585957 -0.3335619
7.0500507 -3.7699065 -0.33009553
6.9878211 -3.757514 -0.31702769
6.9713559 -3.7685275 -0.31356776
6.8064418 -3.9305964 -0.2789042
6.8788667 -3.9900775 -0.29410541
6.8972249 -4.0196309 -0.29795623
7.081356 -4.142756 -0.33660817
7.0591459 -4.149991 -0.3319422
7.0441937 -4.1612339 -0.32879984
7.0524402 -4.1856694 -0.3305279
7.0452528 -4.2012749 -0.32901561
7.0887132 -4.2461061 -0.33813608
7.0741873 -4.257513 -0.33508337
7.0887446 -4.2858047 -0.33813608
7.0960531 -4.3099298 -0.33966696
7.1535439 -4.3636541 -0.35173261
7.4878664 -4.5815372 -0.42191291
7.5718055 -4.6524062 -0.43953049
6.1932139 -3.9019904 -0.15011454
6.1251364 -3.8778901 -0.13582051
6.0436239 -3.8451941 -0.11870623
5.9155383 -3.7834353 -0.091814876
5.8624005 -3.7672043 -0.080657363
5.8256321 -3.7608216 -0.072936058
5.825645 -3.7771337 -0.072936058
5.8256583 -3.7934456 -0.072936058
5.8256712 -3.8097577 -0.072936058
5.8158603 -3.8198702 -0.070873857
5.7755237 -3.8105812 -0.062403679
5.6786289 -3.7650602 -0.042060733
5.6065478 -3.734864 -0.026926756
5.5716248 -3.7281263 -0.01959312
5.5269928 -3.7149308 -0.010221481
5.4843149 -3.7027521 -0.0012600422
5.3676748 -3.6422133 0.023227572
5.2700424 -3.5934422 0.043724775
5.1974425 -3.5605505 0.058967233
5.1574817 -3.5487616 0.067358017
5.1399245 -3.5515754 0.071045995
5.1159739 -3.5500417 0.076076031
5.043663 -3.5160987 0.091257572
4.8910837 -3.4279559 0.12328863
4.8140464 -3.3897982 0.13946223
4.7703013 -3.3737078 0.14864707
4.7571526 -3.378134 0.15140945
4.7725224 -3.4019198 0.14818525
4.783566 -3.4228306 0.14586937
4.7835765 -3.436224 0.14586937
4.7935596 -3.4564962 0.14377606
4.8054976 -3.4781778 0.14127243
4.8009686 -3.488476 0.14222538
4.7164903 -3.44293 0.15996051
4.6357489 -3.3995309 0.17691106
4.5777464 -3.3716822 0.18908852
4.5351906 -3.3544238 0.1980235
4.5116682 -3.3504286 0.20296311
4.3005624 -3.2488127 0.24728411
4.2742796 -3.2418349 0.25280297
4.2199025 -3.2143085 0.26421916
4.1713061 -3.1906922 0.27442169
4.1109433 -3.1581938 0.28709394
4.085216 -3.1507988 0.29249626
