# .PCD v0.7 - Point Cloud Data file format
VERSION 0.7
FIELDS x y z
SIZE 4 4 4
TYPE F F F
COUNT 1 1 1
WIDTH 1477
HEIGHT 1
VIEWPOINT 0 0 0 1 0 0 0
POINTS 1477
DATA ascii
5.1324692 1.3349169 0.18883133
5.1472092 1.3248094 0.18607306
5.1691957 1.316676 0.18195772
5.1516118 1.2973028 0.18525285
5.1567426 1.2843462 0.1842941
5.1640854 1.2719698 0.18292117
5.1869574 1.2637852 0.17864007
5.2235198 1.2591661 0.17179525
5.2137842 1.2419826 0.17362058
5.1942248 1.222258 0.17728567
5.1577268 1.1982149 0.18412268
5.1489649 1.1815482 0.18576574
5.1250024 1.1610425 0.19025517
5.1098738 1.1429052 0.1930905
5.0761437 1.1201984 0.19940913
5.0708404 1.1047134 0.20040435
5.0761662 1.0918587 0.19940913
5.0613241 1.0740967 0.20219058
5.0486727 1.0569412 0.20456189
5.017303 1.0354338 0.21043843
4.9955788 1.0163536 0.21450871
4.9658818 0.99555576 0.22007191
4.9186549 0.97092867 0.22891784
4.9186654 0.95719874 0.22891784
4.9637089 0.95348012 0.22048497
4.9971805 0.94696951 0.21421921
5.0356393 0.9413532 0.20701939
5.0651417 0.93360603 0.20149672
5.0949917 0.92576754 0.19590914
5.1062841 0.91389596 0.19379675
5.0827174 0.89479589 0.19821191
5.033288 0.8705833 0.20747012
5.0315213 0.85617816 0.20780313
5.0339727 0.84261477 0.20734602
5.0652208 0.83463538 0.20149672
5.0455327 0.81672227 0.20518565
5.0041866 0.7948302 0.21293002
4.970645 0.77462041 0.21921307
4.9493222 0.75683713 0.22320789
4.9670982 0.7462275 0.2198813
4.9994106 0.73810077 0.21383274
5.0139122 0.7266798 0.21111923
5.0201597 0.71375751 0.20995146
5.026423 0.70080316 0.20878077
5.0149846 0.68486691 0.2109248
5.0170732 0.67120898 0.21053576
4.9751692 0.6504612 0.21838444
4.978931 0.63716722 0.21768218
4.9922848 0.62534201 0.21518368
5.0164247 0.61508751 0.21066552
5.0202489 0.60165644 0.20995146
5.0213013 0.58779669 0.20975655
5.0213127 0.57378113 0.20975655
5.0213237 0.55976558 0.20975655
5.0213351 0.54575014 0.20975655
5.0213461 0.53173459 0.20975655
5.0213575 0.51771903 0.20975655
5.0213685 0.50370347 0.20975655
5.0286775 0.49061766 0.20838994
5.0412498 0.478147 0.20603788
5.0623364 0.46664318 0.20209157
5.1079035 0.4579353 0.19356143
5.1179895 0.44484934 0.19167501
6.3602366 0.10990265 -0.040859818
6.3602509 0.092151359 -0.040859818
6.3602653 0.074400067 -0.040859818
6.3138537 0.055140376 -0.032167435
6.2314262 0.035070181 -0.01673162
6.1273923 0.014878765 0.0027496815
6.0781989 -0.0034092367 0.011962652
6.038434 -0.021221474 0.01941061
6.0560617 -0.037747875 0.016112566
5.5807562 -0.12443573 0.10511649
5.5602698 -0.14004776 0.10895455
5.5450068 -0.1555506 0.1118145
5.5450187 -0.17102608 0.1118145
5.5450311 -0.18650158 0.1118145
5.5273275 -0.20181102 0.1151315
5.5053539 -0.21696961 0.11924779
5.4705491 -0.23181361 0.12576652
5.436183 -0.24647105 0.1322031
5.419167 -0.2612929 0.13539124
5.4064779 -0.27612066 0.13776922
5.4064898 -0.29120928 0.13776922
5.4065018 -0.3062979 0.13776922
5.4065137 -0.32138649 0.13776922
5.4065261 -0.33647507 0.13776922
5.3981032 -0.35124928 0.13934827
5.39571 -0.36621797 0.13979864
5.4352746 -0.38297164 0.13239348
5.5232854 -0.40215784 0.11591804
5.6018896 -0.42137945 0.10120404
5.7018738 -0.44213519 0.082487226
5.8278394 -0.46485254 0.058906198
5.8891187 -0.48459765 0.04743576
5.8904958 -0.50111401 0.047180533
5.8668656 -0.51607776 0.051607013
5.8384604 -0.53059816 0.056927443
5.8450484 -0.54733878 0.055696487
5.8938928 -0.56710654 0.046554208
5.9186292 -0.58537352 0.041925669
5.9586816 -0.60494781 0.03442955
6.031899 -0.62737024 0.020724535
6.1228895 -0.65165746 0.0036920309
6.1571436 -0.67164552 -0.0027183294
6.1981211 -0.69241309 -0.010387421
6.2236152 -0.7120111 -0.015157819
6.2654853 -0.73327589 -0.022993922
6.2687416 -0.75107181 -0.023600936
6.306293 -0.77226973 -0.030628443
6.4318981 -0.80261159 -0.054140806
6.6477361 -0.8430618 -0.09454596
6.6545696 -0.86234319 -0.095822573
6.610033 -0.87602043 -0.087481976
6.6191387 -0.89549065 -0.089183927
6.6065168 -0.91250384 -0.086818218
6.6950927 -0.94140875 -0.10339797
6.8252754 -0.97584224 -0.12776673
6.8571711 -0.99883544 -0.13373494
6.855052 -1.0177009 -0.13333535
6.9526591 -1.049456 -0.15160561
7.1160741 -1.0904529 -0.18219566
7.1342545 -1.1127622 -0.18559611
7.1556258 -1.1356126 -0.18959403
7.3440967 -1.1820643 -0.22487438
7.4190907 -1.2133046 -0.23891091
7.4855957 -1.2437226 -0.25135791
7.4362059 -1.257255 -0.2421087
7.5006952 -1.2877861 -0.25417829
7.5212069 -1.3118833 -0.25801504
7.4575686 -1.3228606 -0.24609864
7.5166502 -1.3531252 -0.25715578
7.5447598 -1.3786757 -0.26241493
7.5047064 -1.3930922 -0.25491369
7.4344196 -1.402193 -0.24175251
7.3416796 -1.4070568 -0.22438824
7.25738 -1.412872 -0.2086041
7.2191863 -1.4263681 -0.20145094
7.2170515 -1.4461269 -0.20104849
7.2548923 -1.4731648 -0.20812929
7.3273263 -1.5068191 -0.22168612
7.4904747 -1.5579284 -0.25222445
7.5748115 -1.5949149 -0.26800931
7.6393261 -1.6285352 -0.2800833
7.7049479 -1.6627327 -0.2923646
7.7410769 -1.6914239 -0.2991246
7.7093959 -1.7066245 -0.29319084
7.8811865 -1.7632997 -0.32534659
7.8374929 -1.7762218 -0.31716383
7.8115158 -1.7926255 -0.3122977
7.7333374 -1.7977618 -0.29765975
7.6903911 -1.8100668 -0.28961718
7.6757879 -1.8283293 -0.28688014
7.7668619 -1.8699117 -0.30392575
7.8094435 -1.9011288 -0.31189358
7.8588643 -1.9341358 -0.3211416
7.9567857 -1.9785645 -0.33946884
7.9240842 -1.9931563 -0.33334398
7.8682151 -2.0021124 -0.32288229
7.727325 -1.9905058 -0.29650521
7.620389 -1.9862953 -0.27648449
7.5016322 -1.9786063 -0.25425076
7.47926 -1.9940188 -0.25005972
7.5421476 -2.0305648 -0.26182878
7.6662765 -2.0829022 -0.28506148
7.7461357 -2.1246471 -0.3000071
7.8046207 -2.161329 -0.31095171
7.8535538 -2.1958487 -0.32010829
7.8936615 -2.2283182 -0.32761276
7.958509 -2.2675939 -0.33974826
7.9451041 -2.2861915 -0.33723569
7.8240314 -2.2754655 -0.314569
7.7908587 -2.288188 -0.30835629
7.7832484 -2.307812 -0.30692852
7.8292613 -2.3424094 -0.31553829
7.8098083 -2.3587484 -0.31189358
7.7669029 -2.3682809 -0.30385911
7.6681614 -2.3614707 -0.28537285
7.67137 -2.3837965 -0.28597021
7.6039672 -2.3853815 -0.27335036
7.5896912 -2.4023566 -0.27067482
7.6111679 -2.4299619 -0.27469182
7.5935311 -2.4458613 -0.27138734
7.5929132 -2.4668555 -0.27126849
7.7823677 -2.5463734 -0.30672801
8.0087814 -2.6384323 -0.34910548
8.0291481 -2.6671579 -0.35291445
8.0132313 -2.6845207 -0.34993172
7.9798174 -2.6962116 -0.34367394
7.8541064 -2.6780083 -0.32014
7.8151069 -2.6872554 -0.31283677
7.8079281 -2.7067046 -0.31148982
7.797893 -2.7251704 -0.3096081
7.9064913 -2.783088 -0.32993221
8.0050354 -2.8382354 -0.34837425
7.8190379 -2.7975845 -0.31355619
7.7419543 -2.7930784 -0.2991246
7.6798005 -2.7932811 -0.28748763
7.6749511 -2.8130205 -0.28657675
7.7288337 -2.8532743 -0.29665911
7.7922988 -2.897208 -0.30853498
7.9157348 -2.962805 -0.33163607
7.9187708 -2.9859719 -0.332201
7.920083 -3.0085328 -0.33244324
7.8840175 -3.0175071 -0.32568955
7.84828 -3.0263996 -0.31899703
7.8394089 -3.0450149 -0.31733346
7.8217101 -3.0602953 -0.31401753
7.8572407 -3.0954311 -0.32066453
7.8930945 -3.1308875 -0.32737219
7.9474854 -3.1735954 -0.33754933
7.9383893 -3.1922765 -0.33584344
7.9293132 -3.2109146 -0.33414137
7.8700895 -3.2100039 -0.323053
7.7480407 -3.18416 -0.30020595
7.7225389 -3.1957123 -0.29542947
7.7489877 -3.33582 -0.30036056
7.9420524 -3.4373453 -0.33649278
7.8791003 -3.4332638 -0.32470691
7.7194123 -3.3882504 -0.29481542
7.6919813 -3.3981962 -0.2896781
7.7261481 -3.6065555 -0.29604399
7.7261653 -3.6281106 -0.29604399
7.624074 -3.6034148 -0.27693319
7.6748061 -3.6477983 -0.28642511
7.6975799 -3.6796448 -0.29068422
7.5729718 -3.6436272 -0.26735938
8.3556871 -4.1911335 -0.4138248
8.0174999 -4.049932 -0.35052741
7.9808989 -4.0543847 -0.34367394
7.9390769 -4.0560641 -0.33584344
7.957345 -4.0872431 -0.33925903
7.9941173 -4.1277308 -0.34613788
7.9149241 -4.1103983 -0.33131325
7.8908854 -4.1203747 -0.32681096
7.8432231 -4.1182652 -0.31788754
7.7741222 -4.1049829 -0.30495179
7.3419642 -3.905602 -0.22406888
6.9788284 -3.7393103 -0.15610421
6.7607555 -3.6460052 -0.1152885
6.7213874 -3.6443911 -0.1079179
6.7214022 -3.663142 -0.1079179
6.6696138 -3.6546721 -0.098222971
6.6632094 -3.6698873 -0.09702158
6.6060023 -3.658088 -0.086312413
6.5154262 -3.6281564 -0.069358349
6.4341278 -3.6026981 -0.054140806
6.2937608 -3.544924 -0.027868629
6.1855931 -3.5038259 -0.0076227188
6.0943375 -3.4713409 0.0094581842
5.9958282 -3.4343736 0.027896523
5.8756528 -3.3849282 0.050389528
5.7556405 -3.334903 0.072851777
5.7216768 -3.3320637 0.079210401
5.6794453 -3.3244138 0.087116122
5.6470308 -3.3220422 0.09318471
5.5953193 -3.3085968 0.10286462
5.545331 -3.2958407 0.11222196
5.3066993 -3.1752629 0.15688282
5.2009821 -3.1294973 0.17666936
5.1327424 -3.1047168 0.1894421
5.0451241 -3.068346 0.2058413
4.9864769 -3.0483251 0.21681887
4.9488077 -3.0402296 0.22387034
4.9206805 -3.0375228 0.22913617
4.9171968 -3.0491889 0.22979021
4.9172077 -3.0629058 0.22979021
4.9294724 -3.0839157 0.22749704
4.9577222 -3.114553 0.22221231
4.9577332 -3.1283827 0.22221231
4.9577441 -3.1422126 0.22221231
4.9453611 -3.1485274 0.22453183
4.917273 -3.1452072 0.22979021
4.917284 -3.1589241 0.22979021
4.917295 -3.172641 0.22979021
4.9173059 -3.186358 0.22979021
4.9173169 -3.2000749 0.22979021
4.9173279 -3.2137918 0.22979021
4.9173388 -3.2275088 0.22979021
4.9313593 -3.2500327 0.2271685
4.9313703 -3.2637887 0.2271685
4.9360685 -3.2805178 0.2262913
4.8804097 -3.2588246 0.23670906
4.8069315 -3.225421 0.25046134
4.0142698 -2.8078194 0.39880836
4.021029 -2.8235049 0.39754516
4.0348744 -2.8439591 0.39495605
4.0161595 -2.8426607 0.39845973
3.9986074 -2.8420405 0.40174586
3.9663301 -2.8313675 0.40778756
3.8931074 -2.7927203 0.42149127
3.8590777 -2.7803788 0.42786074
3.7960176 -2.7479794 0.43966258
3.7583485 -2.7326765 0.44671303
3.7426848 -2.7323465 0.4496457
3.7231429 -2.7292428 0.45330405
3.6577768 -2.6941566 0.46553725
3.5856254 -2.6539681 0.47904009
3.5285523 -2.6239488 0.4897213
3.5000224 -2.613703 0.49506146
3.48702 -2.6142714 0.49749595
3.3514695 -2.5651929 0.52286762
3.3471563 -2.5714154 0.52367616
3.3433928 -2.5780132 0.52438176
3.3369553 -2.5826404 0.52558774
3.3225515 -2.5814023 0.52828431
3.3140779 -2.5844395 0.52987128
5.3105721 1.8174096 0.14032495
5.3028264 1.7997248 0.14179981
5.324616 1.7928603 0.13765931
5.3544707 1.7887943 0.13198543
5.3387337 1.7681807 0.13497972
5.3576555 1.7600111 0.13138449
5.3466206 1.7411397 0.13348472
5.3729434 1.7354394 0.12848246
5.3397627 1.7088782 0.13479304
5.3221617 1.6878821 0.13814163
5.2746177 1.6567279 0.14718306
5.2488914 1.6332519 0.15207642
5.1992893 1.6018749 0.16150904
5.1974401 1.5867317 0.16186273
5.2848382 1.601172 0.14524877
5.3123026 1.5954317 0.14002955
5.3116493 1.5803778 0.14015615
5.2398701 1.542356 0.15380484
5.2049494 1.5165367 0.16044605
5.1760197 1.4928142 0.16594833
5.1837912 1.4807992 0.164473
5.1760426 1.4639019 0.16594833
5.1683173 1.4470549 0.16741925
5.1683292 1.4326203 0.16741925
5.1267395 1.4055634 0.1753282
5.0674996 1.3734323 0.18659276
5.1029825 1.369844 0.17984909
5.1062231 1.356545 0.17923516
5.1376677 1.3514702 0.17325926
5.1453247 1.3393345 0.17180574
5.1491671 1.3260626 0.17107737
5.1535645 1.3129267 0.17024368
5.1360779 1.2936156 0.17357016
5.1543188 1.2843443 0.17010456
5.1826577 1.2777529 0.16471922
5.193419 1.2662102 0.16267556
5.1912031 1.2511048 0.16309899
5.1596756 1.2281826 0.16909486
5.1361465 1.2075505 0.17357016
5.1339788 1.1926365 0.17398441
5.1378045 1.1792853 0.17325926
5.1301937 1.1629856 0.17470849
5.1226048 1.1467342 0.17615324
5.1037135 1.1276958 0.17974687
5.1134286 1.1158446 0.1779021
5.1188469 1.1028874 0.17687416
5.1037474 1.0849354 0.17974687
5.0908771 1.067601 0.18219566
5.0505228 1.043842 0.1898694
5.0149555 1.0214264 0.19663304
4.9850144 1.0005084 0.20232707
4.9233422 0.97252285 0.21405327
4.9233532 0.95877337 0.21405327
4.9613757 0.95347822 0.20682722
5.0020566 0.94855452 0.19909567
5.0479679 0.94453764 0.19037002
5.0776296 0.93678653 0.18473339
5.1076422 0.92894375 0.17903024
5.1038837 0.91389406 0.17974687
5.0739384 0.89347982 0.18544167
5.0338511 0.87117577 0.19306427
5.007308 0.85180521 0.19811231
5.0253386 0.84137642 0.19468677
5.0607228 0.83422172 0.18796241
5.0321517 0.81461012 0.19339579
4.9894624 0.7924912 0.20151317
4.9469848 0.77065027 0.20959014
4.918848 0.75167549 0.21494091
4.9364138 0.74110794 0.21160382
4.9612136 0.73172808 0.2068916
4.9683523 0.71912026 0.2055366
4.9744902 0.70630038 0.20437205
4.9914265 0.69527483 0.20115459
5.0084777 0.68417394 0.19791532
5.0425024 0.67575753 0.19144958
4.9769206 0.65111768 0.2039184
4.9779558 0.63738132 0.20372373
4.9735341 0.62279129 0.20456636
5.0057712 0.61381984 0.19844037
5.0178895 0.60165453 0.19613892
5.0262356 0.58886719 0.19455445
5.026247 0.57483125 0.19455445
5.026258 0.56079531 0.19455445
5.0262694 0.54675949 0.19455445
5.0262804 0.53272355 0.19455445
5.0262914 0.51868773 0.19455445
5.0263028 0.50465178 0.19455445
5.0263138 0.49061581 0.19455445
5.0514994 0.47971812 0.18976921
5.1871791 0.4821454 0.16398025
5.2290235 0.4726415 0.15602845
5.1528502 0.44918075 0.17051011
6.3572474 0.10990027 -0.058357596
6.3572617 0.092148975 -0.058357596
6.357276 0.074397683 -0.058357596
6.3108859 0.055138007 -0.049537539
6.2341118 0.035234645 -0.034941912
6.1408248 0.015315622 -0.01720798
6.0913935 -0.0030242056 -0.0078097582
6.0496726 -0.020923391 0.00012278557
6.0367789 -0.038054928 0.0025759935
5.9151859 -0.056826591 0.02568996
5.8645673 -0.073999345 0.035313606
5.8816786 -0.090200737 0.032063723
5.823215 -0.10705496 0.043178439
5.5871449 -0.12439653 0.088050842
5.5576563 -0.14004984 0.09365809
5.5424004 -0.15555267 0.096560001
5.533545 -0.17099452 0.098245502
5.5247173 -0.18638703 0.099925756
5.5027542 -0.20160699 0.10410261
5.476625 -0.21665353 0.10907125
5.4507427 -0.23155777 0.11399281
5.4251046 -0.24632174 0.11886823
5.4123816 -0.26120785 0.12128866
5.4039369 -0.27612269 0.12289608
5.4039488 -0.29121131 0.12289608
5.4039612 -0.30629992 0.12289608
5.4039731 -0.32138851 0.12289608
5.403985 -0.3364771 0.12289608
5.4052029 -0.35161072 0.12266684
5.3989472 -0.36645141 0.12385809
5.3819962 -0.38079846 0.12708211
5.4740877 -0.40003133 0.10958111
5.5485382 -0.41892335 0.095433354
5.6172099 -0.43793485 0.082383871
5.6651669 -0.45621008 0.073271275
5.6660223 -0.47207561 0.073111176
5.6242065 -0.48540115 0.081061125
5.6381912 -0.50197649 0.078405619
5.770803 -0.52636671 0.053203821
5.848753 -0.54777974 0.038391232
5.951951 -0.57141554 0.018779993
5.9617348 -0.58875281 0.016922951
5.9868093 -0.60731256 0.012159944
6.0290642 -0.6273725 0.0041315556
6.0663409 -0.64726031 -0.0029506683
6.0999799 -0.66704774 -0.0093412399
6.1402164 -0.68760073 -0.016985893
6.1952219 -0.70971251 -0.027437449
6.239944 -0.73117363 -0.035934448
6.2544651 -0.74998724 -0.038691759
6.296772 -0.7716248 -0.046729684
6.4288754 -0.80261397 -0.07183373
6.6514268 -0.84377503 -0.11412776
6.7030044 -0.86786771 -0.12392747
6.6359005 -0.87920678 -0.11117136
6.6670403 -0.90124106 -0.11708665
6.6160436 -0.91396487 -0.10739183
6.6919465 -0.94141126 -0.12181461
6.7819381 -0.97098684 -0.1389147
6.786706 -0.99051011 -0.13981795
6.8056073 -1.0118499 -0.14340723
7.009481 -1.057236 -0.18215048
7.11273 -1.0904555 -0.20177019
7.0836124 -1.1063802 -0.19623327
7.0935907 -1.1275299 -0.19812655
7.3771772 -1.1872033 -0.25201881
7.4913211 -1.2241641 -0.27370846
7.5887809 -1.2593231 -0.29222715
7.499476 -1.2672038 -0.27525187
7.4755654 -1.28451 -0.27070451
7.4528785 -1.301872 -0.26638985
7.3668008 -1.3091328 -0.25002813
7.3817902 -1.3320975 -0.25287366
7.3964109 -1.3550858 -0.25564897
7.3578954 -1.36935 -0.24832618
7.2492318 -1.3715783 -0.22767234
7.2157617 -1.3860805 -0.22130847
7.2136278 -1.4058514 -0.22090006
7.1986313 -1.423335 -0.2180469
7.2136602 -1.4461297 -0.22090006
7.2514834 -1.4731675 -0.2280848
7.3128228 -1.5047729 -0.23973894
7.3909678 -1.5398811 -0.25458646
7.4708014 -1.5757473 -0.26975489
7.535923 -1.6092107 -0.2821275
7.5950356 -1.6418571 -0.29335809
7.5792031 -1.6599033 -0.29034603
7.4898167 -1.6630026 -0.27335608
7.5009713 -1.6861932 -0.27547264
7.5048623 -1.7079383 -0.27620888
7.5407176 -1.7364297 -0.28301954
7.6274362 -1.775964 -0.29949617
7.6190524 -1.7954434 -0.29789972
7.602325 -1.8130507 -0.29471767
7.643137 -1.8433124 -0.30247033
7.6843896 -1.8739005 -0.31030655
7.6252904 -1.8819262 -0.29907238
7.5620294 -1.8886646 -0.28704727
7.4921637 -1.893513 -0.27376723
7.5541992 -1.9290345 -0.28555286
7.6191878 -1.9656056 -0.29789972
7.5479536 -1.9696983 -0.28435957
7.3494191 -1.9423479 -0.24662852
7.3248744 -1.9568064 -0.24196112
7.2468066 -1.9577762 -0.22712266
7.3287072 -1.9986621 -0.24268329
7.3763514 -2.0312684 -0.25173402
7.4231019 -2.0639098 -0.26061487
7.6756802 -2.1504557 -0.30860925
7.7485642 -2.1910777 -0.32245612
7.7312646 -2.2080984 -0.31916535
7.6905909 -2.2187357 -0.31143296
7.6474662 -2.2284794 -0.3032347
7.5883675 -2.2335961 -0.29200113
7.5694075 -2.2495165 -0.28839493
7.6314492 -2.2880237 -0.30018139
7.6362796 -2.3106894 -0.30109608
7.6338892 -2.3313189 -0.30063868
7.5827484 -2.3378687 -0.2909174
7.5837154 -2.3593132 -0.29109788
7.5482726 -2.3700542 -0.28435957
7.5201588 -2.3827736 -0.27901423
7.5085163 -2.4002721 -0.27679861
7.5071363 -2.4208102 -0.27653325
7.4984741 -2.4391172 -0.27488399
7.6244106 -2.498841 -0.29881167
7.9001799 -2.6058452 -0.35121083
7.9645391 -2.6480796 -0.36343729
7.9377036 -2.6618149 -0.35833442
7.8767381 -2.6645052 -0.34674644
7.7276597 -2.6384809 -0.31841505
7.7021151 -2.6517496 -0.31355786
7.6272731 -2.648726 -0.29933321
7.6176925 -2.6668463 -0.29750931
7.6347127 -2.6937759 -0.30074024
7.6406169 -2.717066 -0.30185902
7.6022563 -2.7253933 -0.29456651
7.5809669 -2.7393374 -0.29051793
7.5297971 -2.7428732 -0.28079164
7.5539727 -2.772279 -0.28538227
7.6274085 -2.8190567 -0.29933321
7.6702223 -2.8554435 -0.30746508
7.8225613 -2.931006 -0.33640862
7.8166866 -2.9507308 -0.33528912
7.831872 -2.9780273 -0.33817124
7.8303704 -2.9993365 -0.33788264
7.7857432 -3.0048242 -0.32939947
7.8218055 -3.0398746 -0.33624864
7.7479973 -3.0342262 -0.32222068
7.7529755 -3.0577145 -0.32316327
7.7654228 -3.0840526 -0.32552528
7.8004594 -3.1190579 -0.33217931
7.8004766 -3.1408317 -0.33217931
7.8137074 -3.1677089 -0.33469009
7.7561655 -3.167129 -0.323753
7.6459832 -3.1456044 -0.30281413
7.616941 -3.1554806 -0.29729259
7.5044465 -3.1320333 -0.27591431
7.5867491 -3.1859081 -0.29154944
7.6733069 -3.2419567 -0.30799282
7.722261 -3.283231 -0.31729126
7.7050791 -3.29776 -0.31402338
7.7198339 -3.3253288 -0.3168236
7.695972 -3.3369889 -0.3122865
7.6539907 -3.340961 -0.30430651
7.4991574 -3.2973361 -0.27488399
7.5035119 -3.3201008 -0.2757082
7.5047798 -3.5509796 -0.27591431
7.5265656 -3.5818527 -0.2800504
7.5402517 -3.6091318 -0.28264761
7.4878659 -3.6059918 -0.27269113
7.8001242 -3.9242179 -0.3319937
7.8063989 -3.9490345 -0.33318257
7.8225532 -3.9787214 -0.33624864
7.8074398 -3.9931071 -0.33337379
7.8074574 -4.0148983 -0.33337379
7.7888942 -4.0274396 -0.32984364
7.8428888 -4.076201 -0.3400991
7.8251677 -4.0891619 -0.33672881
7.7924542 -4.0944343 -0.33051014
7.697648 -4.0679212 -0.3124944
7.3260837 -3.8992429 -0.24189699
6.947535 -3.7248976 -0.16997278
6.7425294 -3.6382217 -0.13102067
6.6922402 -3.6308756 -0.12146318
6.692255 -3.6495538 -0.12146318
6.6664805 -3.6546745 -0.11656368
6.6858187 -3.6834931 -0.12023473
6.6472988 -3.68168 -0.11291361
6.5662155 -3.6569195 -0.097505927
6.473217 -3.6253092 -0.079834461
5.7529368 -3.3349051 0.057024717
5.7221413 -3.3338196 0.062877893
5.681438 -3.3270223 0.070613265
5.6351852 -3.3168783 0.079403043
5.5836649 -3.3035016 0.089193344
5.4101443 -3.2205942 0.12216187
5.2362041 -3.1364796 0.15520978
5.1305785 -3.0905485 0.17527902
5.0829577 -3.0774345 0.18432832
5.0228839 -3.0568485 0.19574332
4.9733882 -3.042078 0.20514882
4.9429502 -3.0381668 0.21093351
4.914876 -3.0354736 0.21626914
4.914887 -3.0491905 0.21626914
4.9148974 -3.0629075 0.21626914
4.9236512 -3.08183 0.21460831
4.9447708 -3.1081998 0.21059805
4.9447818 -3.122 0.21059805
4.9447927 -3.1358004 0.21059805
4.935987 -3.1442518 0.21227312
4.9149632 -3.1452088 0.21626914
4.9149742 -3.1589258 0.21626914
4.9149852 -3.1726427 0.21626914
4.9149961 -3.1863596 0.21626914
4.9150071 -3.2000766 0.21626914
4.9220095 -3.2181518 0.21494091
4.9290318 -3.2362785 0.21360892
4.9360747 -3.2544568 0.21227312
4.9290538 -3.2637906 0.21360892
4.9220533 -3.2730975 0.21494091
4.8804107 -3.2602882 0.22285396
4.8228283 -3.2370436 0.23379511
4.018909 -2.8121426 0.38653129
4.0018754 -2.8120217 0.3897689
4.0072908 -2.8268018 0.38874173
3.9934258 -2.8286784 0.39137733
3.9829283 -2.8327463 0.39337319
3.9592829 -2.8278627 0.39786679
3.9051404 -2.8021359 0.40815365
3.8426082 -2.7703853 0.42003435
3.7942345 -2.7479808 0.42922527
3.756583 -2.7326779 0.43637937
3.7519364 -2.7399478 0.43726367
3.7275298 -2.7334967 0.44190162
3.6590042 -2.696208 0.45492059
3.5754766 -2.6480556 0.47078937
3.5299792 -2.6261137 0.47943372
3.513092 -2.6240661 0.48264313
3.5065734 -2.6292555 0.4838829
3.5274324 -2.6538417 0.479922
3.5131154 -2.6534774 0.48264313
3.4848204 -2.6430333 0.48801959
3.4486103 -2.6267471 0.49489957
3.385951 -2.5911894 0.50680381
3.3760483 -2.5934656 0.5086863
3.3678415 -2.5969188 0.51024669
3.353164 -2.5956063 0.51303625
3.3353953 -2.5919495 0.51641297
3.3252535 -2.5937982 0.51834089
5.374146 1.7968323 0.11296117
5.3614898 1.7323035 0.11541283
5.3031254 1.6969907 0.12667727
5.291152 1.6780314 0.12899005
5.2601004 1.6526011 0.13498425
5.2692776 1.6410184 0.13321567
5.2601237 1.6232047 0.13498425
5.2628055 1.6093992 0.13446903
5.3335962 1.6181579 0.12081122
5.3355689 1.6038989 0.12043285
5.2905731 1.5743209 0.12911773
5.2533288 1.5474991 0.13630676
5.2261028 1.5240953 0.14156246
5.2047515 1.5027087 0.14568472
5.2204871 1.4931146 0.1426506
5.2204986 1.4785274 0.1426506
5.2126369 1.4615059 0.14416993
5.1902809 1.4400883 0.1484859
5.1373873 1.4095253 0.15869457
5.0928402 1.3817687 0.16729242
5.1286964 1.3782194 0.16037583
5.1417885 1.3677499 0.15785182
5.1659555 1.3604457 0.15319085
5.1582565 1.3437784 0.15467864
5.1544213 1.3282621 0.15542084
5.1511407 1.3129247 0.15605617
5.1260486 1.2914724 0.1609
5.1365809 1.2800786 0.15886986
5.1493473 1.2692419 0.15640879
5.1446142 1.2535596 0.15732431
5.1380701 1.2374147 0.15858924
5.1190553 1.2179741 0.16226041
5.1163597 1.202955 0.16278267
5.1239567 1.1906441 0.16131902
5.1353884 1.1792834 0.15911543
5.1353998 1.1649346 0.15911543
5.1354113 1.1505859 0.15911543
5.1316104 1.1352822 0.15985107
5.1490965 1.1252722 0.15647924
5.1622925 1.1141138 0.15393525
5.1469288 1.0959679 0.15690196
5.1148396 1.0739059 0.16309571
5.0539474 1.0452117 0.17484701
5.0089645 1.0205758 0.18352854
4.9719186 0.99802399 0.19067878
4.9140306 0.97092497 0.20185018
4.9140415 0.95719504 0.20185018
4.9529505 0.9521209 0.19434482
5.0166373 0.95227313 0.18205887
5.0667276 0.9491204 0.1723963
5.0976982 0.94159341 0.16642284
5.1203666 0.9321388 0.16205132
5.1165876 0.91704214 0.16278267
5.0939755 0.89809155 0.16714764
5.0736904 0.87973988 0.17106378
5.0383062 0.85847938 0.1778931
5.0035849 0.8375473 0.18459445
5.0163913 0.8260572 0.18212575
4.9790649 0.8048811 0.18932968
4.958497 0.78708088 0.19330025
4.9345737 0.76877069 0.19791818
4.9095511 0.75039291 0.20274812
4.9270592 0.73983586 0.19937229
4.9376283 0.72794735 0.19733524
4.9411683 0.71476972 0.19665432
4.9512916 0.7027061 0.19470322
4.956882 0.68981791 0.19362682
4.9834385 0.68039227 0.18850517
5.0352364 0.67495358 0.17851359
4.9786744 0.65177512 0.18942857
4.967442 0.63608611 0.19159788
4.9589686 0.62088883 0.1932348
4.9889736 0.61161304 0.18744791
5.0082626 0.60056353 0.18372858
5.0238719 0.58886528 0.18071902
5.0238833 0.57482934 0.18071902
5.0238943 0.5607934 0.18071902
5.0239058 0.54675758 0.18071902
5.0239167 0.53272164 0.18071902
5.0239282 0.51868582 0.18071902
5.0239391 0.50464988 0.18071902
5.0239501 0.49061391 0.18071902
5.0491238 0.47971621 0.17586446
5.1712313 0.48049644 0.15230829
5.2025895 0.46978346 0.1462605
5.1410642 0.44808957 0.15813285
5.1700034 0.43701109 0.15255189
5.174437 0.42305717 0.15169865
5.2116003 0.41261157 0.14453101
6.3542581 0.10989788 -0.075855374
6.3542724 0.092146605 -0.075855374
6.3542867 0.074395314 -0.075855374
6.3079185 0.055135652 -0.066907525
6.2396159 0.035483062 -0.053727984
6.1570692 0.015828609 -0.037800908
6.1181636 -0.0023111254 -0.03029263
6.0675507 -0.020483315 -0.020525932
5.984035 -0.038983047 -0.004412055
5.8422976 -0.057933591 0.02293396
5.788888 -0.07494697 0.033239961
5.7005291 -0.09201736 0.050288081
5.6578889 -0.1082567 0.058516383
5.593554 -0.12435719 0.070929885
5.5550432 -0.14005192 0.078361511
5.5397944 -0.15555474 0.081305504
5.5309434 -0.17099659 0.083015442
5.5133128 -0.18633106 0.086418986
5.487071 -0.20148617 0.091483593
5.456768 -0.21644512 0.097331762
5.4310608 -0.23130354 0.10229325
5.4140611 -0.2461729 0.10557508
5.4056067 -0.26112294 0.10720825
5.4013963 -0.27612472 0.10802293
5.4014082 -0.29121333 0.10802293
5.4014201 -0.30630195 0.10802293
5.401432 -0.32139054 0.10802293
5.401444 -0.33647913 0.10802293
5.4123287 -0.3519735 0.10592544
5.4303164 -0.36781353 0.10245788
5.4216499 -0.38261032 0.10413194
5.5151596 -0.4020279 0.086095691
5.5400038 -0.41863811 0.081305504
5.602869 -0.43733695 0.069180965
5.6702752 -0.45663247 0.056180477
5.6494226 -0.47128519 0.06020546
5.5912557 -0.48359501 0.071428537
5.6336646 -0.50186151 0.063250065
5.82829 -0.53029698 0.025708795
5.9294939 -0.55346298 0.0061888695
5.9874225 -0.57412875 -0.0049831867
5.9657869 -0.58925974 -0.00080704689
5.9869556 -0.60754097 -0.0048879385
6.0052929 -0.62571621 -0.0084226131
6.021245 -0.64379823 -0.011497259
6.0703464 -0.66478026 -0.020966411
6.1102109 -0.68522751 -0.028653622
6.1796589 -0.70857143 -0.042047262
6.2066164 -0.72834384 -0.047244787
6.2233901 -0.7472893 -0.050477624
6.2661071 -0.76889086 -0.058714986
6.4269905 -0.80273211 -0.089746237
6.6059542 -0.83935857 -0.12426484
6.6654058 -0.86417937 -0.13573003
6.6370249 -0.87967587 -0.13025272
6.7008095 -0.90540385 -0.14255357
6.6703501 -0.92060041 -0.13667512
6.7456675 -0.94814217 -0.15120065
6.794292 -0.97287178 -0.16057706
6.7920828 -0.99157429 -0.16014791
6.8043199 -1.0120947 -0.16250551
7.0404277 -1.0616727 -0.20804608
7.1415553 -1.0947137 -0.22754979
7.1094022 -1.1103164 -0.22134459
7.1135979 -1.1307507 -0.22215092
7.4189191 -1.1935655 -0.2810415
7.5626779 -1.2349086 -0.30876791
7.6693463 -1.2716304 -0.32933998
7.5781035 -1.2794508 -0.31173706
7.5184779 -1.2915622 -0.30023265
7.4301624 -1.2989041 -0.2831943
7.3114309 -1.3009645 -0.26028919
7.2069359 -1.3046424 -0.24013019
7.0893288 -1.3055995 -0.21744227
7.063333 -1.3210884 -0.21242499
7.0929227 -1.3458033 -0.2181294
7.1403732 -1.3737444 -0.22727883
7.1728396 -1.3993404 -0.23353803
7.1877675 -1.422014 -0.23641443
7.2027578 -1.4447823 -0.23930275
7.2329111 -1.4704021 -0.24511576
7.2786088 -1.4990712 -0.25392699
7.3404393 -1.531031 -0.26584995
7.4033289 -1.5635381 -0.27797711
7.4673057 -1.5966069 -0.29031384
7.5253701 -1.6288712 -0.30151033
7.4865885 -1.6421572 -0.29402673
7.398416 -1.6452444 -0.27701676
7.4261279 -1.6715834 -0.28235877
7.4056931 -1.6880776 -0.27841401
7.4467258 -1.7173952 -0.28632534
7.485899 -1.7465454 -0.29387796
7.5627213 -1.7840488 -0.30869198
7.5773387 -1.8083674 -0.31150818
7.6323166 -1.8417132 -0.32210898
7.5987844 -1.8555007 -0.31563807
7.5407953 -1.8635432 -0.30445004
7.4409542 -1.8616344 -0.28518975
7.3292041 -1.8563955 -0.26363266
7.3493152 -1.8816004 -0.26750839
7.428606 -1.9210266 -0.28279853
7.4576163 -1.9487679 -0.28839076
7.3355742 -1.9398156 -0.26484859
7.3296661 -1.9588416 -0.26370597
7.2636895 -1.9628427 -0.25097764
7.3097749 -1.9947565 -0.25986326
7.2949982 -2.0113978 -0.25700998
7.3076015 -2.0350192 -0.25943768
7.4446244 -2.0911529 -0.28586257
7.5391674 -2.1368566 -0.30409408
7.5405269 -2.1582701 -0.30435288
7.5526452 -2.1825871 -0.306687
7.4577985 -2.1778862 -0.28839052
7.4620304 -2.1998734 -0.28920376
7.4436879 -2.2156193 -0.28566265
7.5037069 -2.253227 -0.29723525
7.5411305 -2.2847736 -0.30445004
7.5824914 -2.3176544 -0.31242406
7.5376415 -2.3258796 -0.30377042
7.4678869 -2.3265955 -0.29031384
7.4702082 -2.3481307 -0.29075837
7.3926473 -2.3459499 -0.27579629
7.4251709 -2.3763435 -0.28206587
7.4153295 -2.3940978 -0.2801646
7.4358492 -2.4210696 -0.28411901
7.4910998 -2.4588606 -0.29477167
7.6272469 -2.5221193 -0.32102644
7.7060518 -2.5681443 -0.33622181
7.7312303 -2.5976319 -0.34107447
7.6844931 -2.6042912 -0.33205736
7.6185117 -2.6044893 -0.31932878
7.5583715 -2.6062174 -0.30772662
7.5261569 -2.6167622 -0.30151033
7.5168242 -2.6346908 -0.29970729
7.5168409 -2.6556835 -0.29970729
7.5075312 -2.6735415 -0.29790854
7.4816346 -2.6857257 -0.29291093
7.4635801 -2.7004447 -0.28942573
7.4201236 -2.7063119 -0.2810415
7.4486828 -2.7369475 -0.28654623
7.5274606 -2.7853236 -0.301736
7.5663037 -2.8200471 -0.30922389
7.6572785 -2.8735297 -0.32676589
7.6970677 -2.9091716 -0.33443642
7.7117987 -2.9359825 -0.33727396
7.7972751 -2.988631 -0.35375524
7.7126522 -2.9793565 -0.33743203
7.7879434 -3.0287197 -0.35194898
7.7012348 -3.0181699 -0.33522344
7.6841378 -3.0332556 -0.33192289
7.6501546 -3.0418622 -0.32536578
7.6586437 -3.066453 -0.32699966
7.6333013 -3.0781128 -0.32210898
7.6671686 -3.1125095 -0.32863712
7.6229172 -3.1166933 -0.32009983
7.5894728 -3.1248653 -0.31364679
7.5304608 -3.1227574 -0.3022629
7.4846835 -3.1255815 -0.2934314
7.5831828 -3.1859109 -0.31242406
7.6697001 -3.2419596 -0.3291055
7.7186313 -3.2832339 -0.33853865
7.7014575 -3.2977629 -0.33522344
7.6705613 -3.3065491 -0.32926178
7.5843759 -3.2922554 -0.31263781
7.5548825 -3.3011262 -0.30694675
7.4525537 -3.2792506 -0.28720975
7.4740481 -3.3091404 -0.29135156
7.3890543 -3.500113 -0.27492583
7.4314151 -3.5400639 -0.28309166
7.4447637 -3.5669348 -0.28566265
7.433579 -3.582552 -0.28350246
7.5395975 -3.7998765 -0.30392146
7.4935584 -3.798506 -0.29504013
7.5837226 -3.8635747 -0.31242406
7.607573 -3.8964889 -0.31701994
7.5980382 -3.913002 -0.31517804
7.6306272 -3.9504414 -0.32145917
7.716754 -4.0148764 -0.33806407
7.7812638 -4.0689058 -0.35050058
7.8063736 -4.1033416 -0.35533929
7.6947293 -4.0682797 -0.33380711
7.3433728 -3.9098608 -0.26605046
6.9535789 -3.7296925 -0.19088197
6.7544031 -3.6460104 -0.1524713
6.7020583 -3.6376238 -0.14237475
6.7020736 -3.6563385 -0.14237475
6.6891246 -3.6682348 -0.13987482
6.7086034 -3.6972046 -0.14362824
6.6891546 -3.7055914 -0.13987482
6.6178527 -3.6861627 -0.12612283
6.5128217 -3.6482189 -0.10586691
5.7420497 -3.330375 0.042775869
5.7100091 -3.3285654 0.048956633
5.6663623 -3.3200836 0.057375193
5.6051497 -3.3014822 0.069180965
5.530045 -3.2746892 0.08366549
5.4238009 -3.2297947 0.10415435
5.2215405 -3.1295185 0.1431576
5.1508207 -3.1035402 0.15679634
5.0688677 -3.0706944 0.17260104
5.0524812 -3.0753539 0.17576289
4.99155 -3.0540061 0.18751401
4.949718 -3.0434833 0.19558227
4.9195542 -3.0395801 0.20140064
4.9125767 -3.0491924 0.20274812
4.9125876 -3.0629094 0.20274812
4.9178381 -3.0797474 0.20173788
4.9318748 -3.1018739 0.19903338
4.9318857 -3.1156447 0.19903338
4.9318967 -3.1294153 0.19903338
4.9266391 -3.1399884 0.2000494
4.9126534 -3.1452107 0.20274812
4.9126644 -3.1589277 0.20274812
4.9126754 -3.1726446 0.20274812
4.9126859 -3.1863616 0.20274812
4.9126968 -3.2000785 0.20274812
4.9196963 -3.2181537 0.20140064
4.9197073 -3.23189 0.20140064
4.9127297 -3.2412293 0.20274812
4.8988237 -3.2461505 0.20543158
4.8804007 -3.2481263 0.20898592
4.8458958 -3.2397454 0.21564108
4.8083501 -3.2292249 0.22288245
3.9800396 -2.7876365 0.38260603
3.9693899 -2.791656 0.38466108
3.9777682 -2.808332 0.3830474
3.9673479 -2.812439 0.38505822
3.9477341 -2.8102925 0.38884157
3.9221611 -2.8040044 0.39377397
3.8640583 -2.7754705 0.40497839
3.8225813 -2.7579556 0.41297716
3.7924516 -2.7479823 0.41878796
3.7676728 -2.7415211 0.42356718
3.7554085 -2.7435648 0.42593342
3.7219326 -2.7308316 0.43238938
3.6258824 -2.6743469 0.45090991
3.5716875 -2.6465826 0.46136057
3.5324385 -2.629005 0.46892947
3.5185857 -2.6291013 0.4716019
3.5156131 -2.636817 0.47217655
3.526973 -2.6546941 0.46998775
3.5126531 -2.6543264 0.47275019
3.4843524 -2.6438718 0.47820818
3.4555171 -2.6328754 0.48376918
3.4211826 -2.6177516 0.49039036
3.4077079 -2.6175406 0.49298978
3.3960052 -2.6185424 0.4952476
3.3683739 -2.607856 0.50057632
3.3444192 -2.5997086 0.50519621
3.3311601 -2.5992913 0.50775403
5.2656045 1.6995087 0.11892664
5.2691855 1.6860319 0.11822772
5.2656279 1.6700674 0.11892664
5.2258091 1.641691 0.12672603
5.2428164 1.6328613 0.12339795
5.2668099 1.6262926 0.11870205
5.2925677 1.62018 0.11366069
5.3499589 1.6244152 0.10242534
5.3507609 1.6097188 0.1022706
5.3108149 1.5817311 0.11009479
5.2588506 1.5500815 0.12027204
5.2394905 1.5291718 0.12406528
5.2338319 1.5127231 0.1251756
5.2657566 1.508141 0.11892664
5.2657685 1.4934205 0.11892664
5.2509151 1.4741019 0.12183738
5.1930389 1.4416802 0.13317215
5.1437082 1.4121774 0.14283371
5.1130476 1.3885688 0.14883935
5.1492076 1.3850516 0.14176142
5.1646161 1.3752038 0.1387465
5.1867843 1.3672477 0.13440812
5.1613321 1.3453705 0.13939404
5.1466231 1.3267184 0.14227629
5.1547537 1.3146381 0.14068663
5.1160483 1.2893357 0.14826739
5.1270881 1.2781059 0.14610803
5.1202235 1.2618772 0.14745438
5.1394606 1.2528118 0.14368999
5.1329265 1.2366765 0.14497161
5.1204391 1.2189859 0.14741898
5.1096301 1.2018096 0.14953744
5.1139641 1.1886575 0.14869118
5.1253567 1.1773092 0.1464628
5.1368003 1.1659104 0.14422441
5.1406336 1.1525193 0.14347601
5.1444726 1.1391083 0.14272654
5.1598525 1.1285356 0.13971746
5.1521683 1.1122266 0.14122427
5.1216254 1.0904242 0.14720666
5.0780787 1.0656797 0.15573514
5.0221939 1.0382595 0.16667932
4.9777513 1.013827 0.17538315
4.9492364 0.99332273 0.18096828
4.9170446 0.97213876 0.1872735
4.9411688 0.9638294 0.18255228
4.9777956 0.95816886 0.17538315
5.0519891 0.96056139 0.16085881
5.1017385 0.95723426 0.15112042
5.1179457 0.9464432 0.14794934
5.0978174 0.92787838 0.15189266
5.0862136 0.91120493 0.15416682
5.0766149 0.89500952 0.15604824
5.0883765 0.8832047 0.15374774
5.0729103 0.8658818 0.15677798
5.0513759 0.84744716 0.16099656
5.0320654 0.829566 0.16477937
4.986814 0.80681551 0.17364126
4.964304 0.78861785 0.17805076
4.9262233 0.76764584 0.18550855
4.8883944 0.74693286 0.19291711
4.9072523 0.73667407 0.1892271
4.9142437 0.72419894 0.18786043
4.9282756 0.71291745 0.18511534
4.9383507 0.70087588 0.18314499
4.9333239 0.68621826 0.18413121
4.9301744 0.6719017 0.18475002
4.9995718 0.66949427 0.17116529
4.944284 0.64660966 0.18199193
4.9508743 0.63383114 0.18070382
4.9495339 0.61978245 0.18096828
4.9794393 0.61051333 0.17511559
4.9950495 0.59893394 0.17206156
5.0069532 0.58672178 0.16973317
5.0069647 0.57272649 0.16973317
5.0142431 0.55975997 0.16831034
5.0215421 0.54675567 0.16688353
5.021553 0.53271973 0.16688353
5.0215645 0.51868391 0.16688353
5.0215755 0.50464797 0.16688353
5.0215869 0.490612 0.16688353
5.0541315 0.48063555 0.16051424
5.1730628 0.48101464 0.13723242
5.2128444 0.47129551 0.12944627
5.1849165 0.45347312 0.13491619
5.1897497 0.4395285 0.13397229
5.2031593 0.42650732 0.13134921
5.2387376 0.41580537 0.12438607
5.2666359 0.40409669 0.11892664
5.2827539 0.39102557 0.11577356
6.3512688 0.1098955 -0.093353152
6.3512831 0.092144221 -0.093353152
6.3512974 0.07439293 -0.093353152
6.3049512 0.055133283 -0.08427763
6.2366805 0.035480723 -0.070909977
6.1416717 0.015489429 -0.052308083
6.0753469 -0.0032779723 -0.039321423
6.0119333 -0.021612361 -0.02690506
5.9062424 -0.040376917 -0.0062121153
5.7887902 -0.058736019 0.01678288
5.7383122 -0.075569823 0.02666688
5.6935558 -0.092063174 0.035431027
5.6449704 -0.10833453 0.044944525
5.5999842 -0.12431773 0.053753495
5.5524302 -0.140054 0.063065052
5.5371885 -0.15555681 0.066051006
5.5283413 -0.17099866 0.067785382
5.5019441 -0.18627527 0.072955251
5.4714627 -0.20136592 0.078924537
5.4413171 -0.21629021 0.084828138
5.4157429 -0.23111442 0.089836717
5.40728 -0.24609968 0.091495872
5.4030638 -0.26112497 0.092323542
5.3988552 -0.27612674 0.093149781
5.3988671 -0.29121536 0.093149781
5.3988791 -0.30630395 0.093149781
5.3988914 -0.32139254 0.093149781
5.3989034 -0.33648115 0.093149781
5.4097824 -0.35197553 0.091022372
5.446094 -0.36855119 0.083916783
5.4697523 -0.38478661 0.079287887
5.5378079 -0.40318403 0.065968394
5.5450153 -0.41900972 0.064559937
5.5847168 -0.4365429 0.056790829
5.6184578 -0.45397547 0.050188422
5.6158619 -0.469529 0.050699115
5.6477828 -0.48712835 0.044453025
5.7280445 -0.5079267 0.02874434
5.8805828 -0.53389186 -0.0011121035
6.0125751 -0.55931091 -0.026946902
6.0444274 -0.57837051 -0.033179164
5.9801812 -0.59052902 -0.020600557
5.9841394 -0.60754323 -0.021372795
5.9576216 -0.62216425 -0.016179442
5.9576349 -0.63881373 -0.016179442
6.0094543 -0.65985858 -0.026320219
6.0591455 -0.68100643 -0.036044359
6.153183 -0.70644224 -0.054448962
6.1815014 -0.72627699 -0.059989452
6.1815152 -0.74355197 -0.059989452
6.2341042 -0.76602209 -0.070280671
6.4307985 -0.80342853 -0.10877943
6.5397701 -0.83277559 -0.13010693
6.6070704 -0.85826445 -0.14327753
6.5783353 -0.87356639 -0.13765001
6.6242895 -0.89713144 -0.14664233
6.6665998 -0.92053211 -0.15492117
6.7312365 -0.94681203 -0.16757011
6.732657 -0.96579325 -0.16784537
6.7524061 -0.98705447 -0.17170811
6.7917624 -1.0109112 -0.17940867
7.0045118 -1.0574514 -0.22104883
7.133986 -1.0941591 -0.24638879
7.089397 -1.1080674 -0.2376579
7.0946808 -1.1286055 -0.23868906
7.3912601 -1.190167 -0.29673731
7.5028486 -1.2268353 -0.3185761
7.6030922 -1.262467 -0.33819389
7.5532527 -1.2762797 -0.32843518
7.4716129 -1.284983 -0.3124522
7.3579922 -1.2882828 -0.29020953
7.2092547 -1.2854167 -0.2610935
7.0853858 -1.2857054 -0.23684502
6.9396281 -1.2817323 -0.20831239
6.9350963 -1.3003706 -0.20742238
7.0840497 -1.344872 -0.23657429
7.170866 -1.3795513 -0.25356376
7.2036262 -1.4052958 -0.25997281
7.2143846 -1.4273279 -0.26207542
7.1993699 -1.444785 -0.25913358
7.2144165 -1.4676481 -0.26207542
7.2446814 -1.4934175 -0.26799595
7.2905502 -1.5222929 -0.27697074
7.3214583 -1.5485668 -0.28301728
7.3526301 -1.5750643 -0.28911519
7.3908362 -1.603119 -0.29658985
7.4294405 -1.6314666 -0.30414259
7.3676081 -1.6397216 -0.29203713
7.3031197 -1.6470865 -0.27941191
7.2775035 -1.662168 -0.27439499
7.2862878 -1.6843505 -0.27611113
7.3549805 -1.7193646 -0.28955269
7.4935985 -1.7698785 -0.31668055
7.5243044 -1.797538 -0.32268703
7.5336938 -1.820642 -0.32452154
7.5072136 -1.8357438 -0.31933558
7.4720616 -1.848726 -0.3124522
7.3685207 -1.845773 -0.29218364
7.2614832 -1.8414268 -0.27123094
7.2580137 -1.8608961 -0.2705487
7.2536774 -1.880139 -0.26969683
7.3187981 -1.9161184 -0.28243911
7.2660561 -1.9236907 -0.2721132
7.2755413 -1.946332 -0.27396655
7.2148018 -1.9514915 -0.26207542
7.214818 -1.9716516 -0.26207542
7.2299275 -1.995665 -0.26502955
7.2234669 -2.0141959 -0.263762
7.3159609 -2.0585048 -0.28186142
7.4093404 -2.1035638 -0.30013442
7.3810992 -2.1167376 -0.29460371
7.4161887 -2.1468053 -0.30146813
7.3687668 -2.154623 -0.29218364
7.3452902 -2.168756 -0.28758585
7.3219633 -2.1827998 -0.28301728
7.3453231 -2.2098048 -0.28758585
7.3609848 -2.2347603 -0.29064775
7.4162874 -2.2711408 -0.30146813
7.4049535 -2.2885854 -0.29924667
7.3532028 -2.2941811 -0.28911519
7.2402511 -2.2814701 -0.26700592
7.2955799 -2.3181391 -0.27783144
7.3272686 -2.3480251 -0.28403008
7.3332081 -2.3702919 -0.28518915
7.3847084 -2.4065142 -0.2952652
7.4438033 -2.4453654 -0.30682743
7.5547328 -2.5006754 -0.32853425
7.639267 -2.5483181 -0.34507501
7.6752925 -2.5810688 -0.35212219
7.6365452 -2.5901279 -0.34453559
7.5077987 -2.5699613 -0.31933558
7.4301858 -2.5657003 -0.30414283
7.38484 -2.5715861 -0.2952652
7.3534317 -2.5818279 -0.28911519
7.3378353 -2.5971673 -0.28605974
7.3423061 -2.6191676 -0.2869314
7.3487902 -2.641876 -0.28819728
7.3482857 -2.662231 -0.28809524
7.3744345 -2.6917694 -0.29320931
7.3368053 -2.6992934 -0.28584206
7.4604478 -2.7630944 -0.31003618
7.4775944 -2.7899868 -0.31338847
7.4616861 -2.805213 -0.3102721
7.5119009 -2.8440642 -0.3200959
7.4877825 -2.8563294 -0.31537271
7.6639934 -2.9414251 -0.34985399
7.5353475 -2.9156168 -0.32467461
7.654974 -2.9809034 -0.3480823
7.5345993 -2.957433 -0.32452154
7.4972582 -2.9644606 -0.31721067
7.4648895 -2.9731598 -0.31087291
7.4822202 -3.000613 -0.3142612
7.4123201 -2.9946859 -0.30057871
7.4580355 -3.0330617 -0.30952191
7.4711027 -3.0589807 -0.31207585
7.4950523 -3.1101747 -0.31675613
7.4811635 -3.1255841 -0.31403494
7.599525 -3.2787902 -0.33718121
7.4931579 -3.2559264 -0.31636262
7.4743466 -3.2690048 -0.31267822
7.4091301 -3.2624836 -0.29991245
7.4170961 -3.2865458 -0.30146813
7.2310696 -3.4300296 -0.26502955
7.2921081 -3.4780822 -0.27697086
7.3230224 -3.5126433 -0.28301728
7.314774 -3.529284 -0.28139985
7.2355556 -3.6341352 -0.26587582
7.305481 -3.6882083 -0.27955592
7.3090277 -3.7103381 -0.28024673
7.3793578 -3.7652047 -0.29400587
7.4563675 -3.8237555 -0.30907214
7.3922739 -3.81282 -0.29652691
7.4189057 -3.8467343 -0.30173504
7.4633174 -3.8897061 -0.3104223
7.6020155 -3.9804339 -0.33755934
7.6192451 -4.0103927 -0.3409276
7.566052 -4.004571 -0.3305155
7.3345795 -3.9071281 -0.28521812
6.9596386 -3.7345004 -0.21184719
6.7891126 -3.6656313 -0.17847621
6.7249727 -3.651197 -0.1659224
6.7119293 -3.6631496 -0.16336727
6.7119441 -3.6819005 -0.16336727
6.7381268 -3.7144938 -0.16848755
6.7381415 -3.7333179 -0.16848755
6.6767988 -3.7193408 -0.15648139
6.5467463 -3.6680975 -0.13103044
5.697916 -3.3233283 0.035081148
5.6683416 -3.322685 0.040870428
5.5934486 -3.2963848 0.055527329
5.5057845 -3.2624466 0.072682977
5.3409925 -3.1842024 0.10493016
5.2401829 -3.1415651 0.12465775
5.2085586 -3.1380546 0.13084793
5.1603312 -3.1247964 0.1402868
5.0773034 -3.0911105 0.15653491
5.0036464 -3.0624146 0.1709494
4.9544816 -3.047632 0.18057144
4.9242458 -3.0436983 0.18648982
4.9102669 -3.0491943 0.1892271
4.9102778 -3.0629113 0.1892271
4.9120336 -3.077668 0.18888575
4.919034 -3.0955751 0.18751812
4.919045 -3.1093163 0.18751812
4.9190559 -3.1230578 0.18751812
4.9173174 -3.1357369 0.18786043
4.9103436 -3.1452127 0.1892271
4.9103541 -3.1589296 0.1892271
4.9103651 -3.1726465 0.1892271
4.9103761 -3.1863635 0.1892271
4.910387 -3.2000804 0.1892271
4.9173832 -3.2181556 0.18786043
4.9243989 -3.2362821 0.18648982
4.9244099 -3.2500381 0.18648982
4.9220839 -3.2623162 0.18694705
4.885766 -3.2529929 0.19405514
4.005826 -2.8059759 0.36624086
3.9919586 -2.8079264 0.36895591
3.9942732 -2.8206191 0.3685047
3.9746013 -2.8185625 0.3723554
3.9321997 -2.8010721 0.38065308
3.9110246 -2.7977149 0.38479775
3.8514845 -2.7681596 0.39644867
3.8075585 -2.7489297 0.40504444
3.7803059 -2.7408812 0.41037816
3.7515976 -2.7316797 0.41599661
3.7353919 -2.7309558 0.41916895
3.7016885 -2.7180026 0.42576456
3.6191187 -2.6708245 0.44192094
3.5658002 -2.643641 0.45235425
3.5393841 -2.6350491 0.45752406
3.5482142 -2.6511543 0.45579803
3.5500438 -2.6623545 0.45544159
3.539149 -2.6645246 0.45757461
3.5187447 -2.6598504 0.4615683
3.4903324 -2.6493285 0.46712852
3.465102 -2.6409349 0.47206628
3.4502888 -2.6399186 0.47496593
3.4365778 -2.6396172 0.47764999
3.4229753 -2.6393182 0.48031271
3.3993428 -2.6316218 0.48493773
3.3577664 -2.6106431 0.4930734
3.3428292 -2.6090283 0.49599731
3.324265 -2.6046522 0.49963063
5.199749 1.6335939 0.11701369
5.2433801 1.6338909 0.10834825
5.2970214 1.6373212 0.097694159
5.3446693 1.6384462 0.088230729
5.3419256 1.622583 0.088778257
5.3176465 1.59965 0.093603849
5.2735667 1.5703933 0.10236299
5.2804914 1.5578797 0.1009897
5.2920661 1.5468181 0.098692656
5.3077674 1.5370039 0.095575809
5.3406196 1.5325047 0.089051843
5.3323827 1.5149925 0.090690494
5.3171439 1.4953592 0.093720078
5.2174325 1.4499081 0.11353064
5.1632528 1.4188499 0.12429607
5.1358356 1.3961518 0.12974489
5.1303959 1.380162 0.13082778
5.1489882 1.3713028 0.12713659
5.1821194 1.366595 0.12055731
5.1732574 1.3495295 0.12232006
5.1672964 1.3333465 0.12350655
5.1710668 1.3199632 0.12275982
5.1419249 1.2972952 0.12855113
5.1424837 1.2830669 0.12844241
5.1077189 1.2590908 0.1353507
5.1239729 1.2492411 0.13212419
5.1191006 1.2335907 0.13309419
5.119112 1.2192739 0.13309419
5.1072249 1.2018077 0.13545787
5.104001 1.1866767 0.13610065
5.111568 1.1743599 0.13459969
5.1229553 1.1629797 0.13233984
5.1382136 1.1525174 0.12931108
5.153563 1.1419926 0.12626433
5.1690044 1.1314046 0.12319922
5.1612897 1.1150546 0.12473404
5.1382594 1.0950371 0.12931108
5.1013985 1.0718355 0.13663554
5.0292296 1.0404826 0.15097368
4.9836149 1.015745 0.16003704
4.9540048 0.99496126 0.16592115
4.9358063 0.9769491 0.16953838
4.9672618 0.9702369 0.16329211
5.000155 0.96366882 0.15676033
5.0978909 0.97117782 0.13734818
5.1350875 0.96499491 0.12996161
5.1394663 0.95157003 0.12909412
5.0849133 0.92565441 0.13993287
5.0704885 0.90842044 0.14280033
5.0630646 0.89270914 0.14427722
5.0822382 0.88244236 0.14047086
5.0790458 0.86758757 0.14110732
5.0872531 0.85500252 0.13947928
5.0914483 0.84159052 0.13864815
5.0610013 0.82150519 0.14469838
4.9930582 0.79449737 0.15819651
4.9400058 0.77064466 0.16873693
4.8930163 0.74820197 0.17807281
4.8940182 0.73469758 0.177876
4.909935 0.72384202 0.17471653
4.9319868 0.71397209 0.17033851
4.9319978 0.70017958 0.17033851
4.8818712 0.6778847 0.18029737
4.8917623 0.6658802 0.17833501
4.9424505 0.66051102 0.16826874
4.920495 0.64314842 0.17263204
4.9566617 0.63511515 0.16545033
4.9593844 0.62167597 0.16491169
4.9747057 0.6101464 0.1618706
4.9793282 0.59692633 0.16095465
4.9829321 0.58353066 0.16024107
4.9757628 0.56855917 0.16166729
4.9901552 0.55668116 0.15881073
5.0046301 0.54473424 0.15593779
5.0119052 0.53172708 0.15449494
5.0192008 0.518682 0.15304804
5.0192118 0.50464606 0.15304804
5.0192232 0.49061015 0.15304804
5.039115 0.47905603 0.14909923
5.1169953 0.47446755 0.13363242
5.1636448 0.46571943 0.12436903
5.1515512 0.4498702 0.12677336
5.1750908 0.43813828 0.1221
5.2216816 0.42882994 0.1128484
5.2614722 0.41852644 0.10494721
5.2949057 0.40733126 0.098308921
5.246397 0.38755313 0.10794628
5.2007565 0.36833242 0.11701369
6.3482795 0.10989311 -0.11085093
6.3482938 0.092141837 -0.11085093
6.3483081 0.074390545 -0.11085093
6.3019838 0.055130929 -0.10164773
6.2450175 0.035813823 -0.090330839
6.1575437 0.015992939 -0.072954655
6.0724874 -0.0032802522 -0.056058884
6.019578 -0.02139084 -0.045547962
5.8991408 -0.04045938 -0.02162528
5.7898927 -0.05867783 7.4863434e-05
5.7395029 -0.075521484 0.010085344
5.6788445 -0.092187792 0.022135139
5.6059895 -0.10860486 0.036607265
5.571548 -0.1244382 0.043449998
5.5345702 -0.1400834 0.050796509
5.5345826 -0.1555589 0.050796509
5.516912 -0.17096719 0.054308414
5.4818964 -0.18616217 0.061265111
5.4473228 -0.20116541 0.068134189
5.4131818 -0.21598053 0.074916959
5.3962784 -0.23086295 0.078276634
5.3962903 -0.24595156 0.078276634
5.3963022 -0.26104015 0.078276634
5.3963141 -0.27612877 0.078276634
5.3963265 -0.29121739 0.078276634
5.3963385 -0.30630597 0.078276634
5.3963504 -0.32139456 0.078276634
5.3963623 -0.33648318 0.078276634
5.4157157 -0.35229427 0.074435353
5.4825401 -0.37011945 0.061166525
5.5112147 -0.38667983 0.055474043
5.5670676 -0.40464365 0.044384241
5.5585461 -0.41979524 0.04607892
5.6275663 -0.43887952 0.032374144
5.6587529 -0.45630181 0.026183009
5.6545744 -0.47188526 0.027015328
5.6289139 -0.48616236 0.03211391
5.7032886 -0.50654972 0.017345905
5.9260468 -0.53704417 -0.026890397
6.062274 -0.56289071 -0.053941965
6.1128702 -0.58342737 -0.063987613
6.0310469 -0.59448749 -0.047735214
6.0006232 -0.60902184 -0.041690469
5.9527655 -0.62200367 -0.032183528
5.9754362 -0.6405074 -0.036683202
6.0066261 -0.65986085 -0.042874694
6.048718 -0.68034434 -0.051231027
6.1393552 -0.70545554 -0.069228172
6.1565657 -0.72422481 -0.072643399
6.167573 -0.74249434 -0.074826717
6.2247524 -0.76538992 -0.086179376
6.4220805 -0.80285239 -0.12536407
6.5508614 -0.83425808 -0.15093577
6.6256785 -0.86059618 -0.1657908
6.6025333 -0.87657237 -0.16119146
6.664978 -0.90207696 -0.17358935
6.7059717 -0.92545021 -0.18172717
6.7643046 -0.95110607 -0.19330847
6.7657399 -0.97019041 -0.1935904
6.7856932 -0.99157941 -0.19754994
6.79811 -1.0121242 -0.2000128
6.917089 -1.0465499 -0.22363734
7.0229239 -1.0799006 -0.24465156
7.0256605 -1.0999037 -0.24519193
7.0758462 -1.1264699 -0.25515497
7.3518391 -1.185109 -0.30995965
7.4165039 -1.2149466 -0.32279778
