# .PCD v0.7 - Point Cloud Data file format
VERSION 0.7
FIELDS x y z
SIZE 4 4 4
TYPE F F F
COUNT 1 1 1
WIDTH 1504
HEIGHT 1
VIEWPOINT 0 0 0 1 0 0 0
POINTS 1504
DATA ascii
1.9507626 1.071932 0.36571229
1.951907 1.0670023 0.36525398
1.9519116 1.0613585 0.36525398
1.9514272 1.0554125 0.36545044
1.9530621 1.0507722 0.36479503
1.957482 1.047827 0.36301982
1.9581424 1.0425665 0.36275613
1.9637389 1.0402943 0.36050791
1.9754698 1.0416901 0.35579354
1.980618 1.0390661 0.35372561
1.9856019 1.0363141 0.35172379
1.9960608 1.0367888 0.34752083
2.0740595 1.0531654 0.31617254
2.0814505 1.0514321 0.31320304
2.0816405 1.0455202 0.31312853
2.0887127 1.0435398 0.31028736
2.1014216 1.0447232 0.30518007
2.1170299 1.0474732 0.29890704
2.1236115 1.0450531 0.2962631
2.2138128 1.0701988 0.26000845
2.2147963 1.0643344 0.25961506
2.2202702 1.0609134 0.25741649
2.2221746 1.0555243 0.25665301
2.2353525 1.0562075 0.25135732
2.2622504 1.0641781 0.24054611
2.2898784 1.0723829 0.2294414
2.3004737 1.0713848 0.22518408
2.3054924 1.0673808 0.22316867
2.3143373 1.065357 0.2196151
2.3234274 1.0634103 0.21596289
2.3378592 1.0641853 0.21016335
2.3645034 1.0711838 0.19945443
2.3887646 1.0768048 0.18970346
2.3985732 1.0749043 0.18576264
2.4021518 1.0697839 0.18432617
2.4011705 1.0623407 0.1847229
2.401176 1.0553985 0.1847229
2.3994565 1.0475951 0.18541634
2.3994622 1.0406579 0.18541634
2.4014392 1.0346931 0.18462372
2.4087021 1.0313094 0.18170631
2.4093697 1.0246681 0.18144017
2.4059041 1.0160199 0.18283552
2.397882 1.0051969 0.18606269
2.4153597 1.006631 0.17903888
2.4298406 1.0065376 0.1732198
2.4362602 1.0025471 0.17064148
2.4309464 0.99300241 0.17277986
2.418505 0.98015773 0.17778349
2.4005497 0.96482432 0.18500364
2.3958404 0.95570815 0.18689883
2.3858225 0.94418466 0.19092816
2.3886714 0.93858278 0.18978506
2.3915274 0.93296778 0.18863916
2.3904734 0.92557693 0.1890651
2.3892574 0.91811991 0.18955618
2.3875551 0.91045368 0.19024265
2.3901234 0.90468204 0.18921244
2.3937993 0.89938116 0.18773711
2.4015498 0.89583325 0.18462372
2.4047663 0.89027941 0.18333292
2.4060092 0.88385868 0.18283552
2.4111009 0.87907374 0.18079114
2.4152157 0.87384522 0.1791392
2.4204719 0.86907339 0.17702866
2.4239907 0.8635447 0.17561638
2.4209843 0.85528624 0.17682719
2.4229128 0.8490802 0.17605412
2.429414 0.84473515 0.17344308
2.4363532 0.84053063 0.17065609
2.4319603 0.83171165 0.17242408
2.4213047 0.82040811 0.17670953
2.4175134 0.8118974 0.17823577
2.4100437 0.80195594 0.18124062
2.4083116 0.79430723 0.18193913
2.4135375 0.78937674 0.17984068
2.4200377 0.78490841 0.17723
2.4270771 0.78060913 0.17440271
2.4376252 0.77760446 0.17016506
2.443779 0.77287936 0.16769373
2.4385924 0.76386881 0.16978061
2.4251692 0.75182545 0.17517859
2.4101646 0.73927617 0.18121207
2.4060607 0.73080432 0.18286395
2.4101756 0.7253412 0.18121207
2.4282138 0.72487068 0.17396373
2.4282193 0.71785104 0.17396373
2.4243646 0.70946276 0.17551547
2.4223609 0.70174778 0.17632306
2.4141967 0.69189608 0.17960691
2.4159484 0.68552089 0.17890513
2.4147894 0.67813742 0.17937315
2.4162507 0.6716516 0.17878801
2.4197571 0.66584694 0.17738098
2.4215167 0.65943813 0.17667592
2.4215221 0.65243804 0.17667592
2.4224055 0.64572632 0.17632306
2.4241693 0.63929605 0.17561638
2.425935 0.63285637 0.17490882
2.4277036 0.62640727 0.17420018
2.4277093 0.61938941 0.17420018
2.4277148 0.61237144 0.17420018
2.4277205 0.60535347 0.17420018
2.4294918 0.59887969 0.17349052
2.4330363 0.59293723 0.17206806
2.4391327 0.58774626 0.16961992
2.4453447 0.5825547 0.16712534
2.4504268 0.5769918 0.16508496
2.4674239 0.57490015 0.15825558
2.5294783 0.58581734 0.13331604
2.5562129 0.58620334 0.1225729
2.5816174 0.58605552 0.11236441
2.6083848 0.58614564 0.10160792
2.6588326 0.59269559 0.081333876
2.9934289 0.64288437 -0.053136706
2.9827449 0.63143063 -0.048839688
2.9755404 0.62094021 -0.045941353
2.9698789 0.61088669 -0.043663144
2.9721506 0.60287559 -0.044573426
2.970423 0.55949795 -0.043865323
2.961652 0.5488404 -0.040337443
2.9437637 0.53610861 -0.033144832
2.8988373 0.51725674 -0.015085816
2.868314 0.50193822 -0.0028152466
2.8288813 0.48479709 0.013035893
2.8107541 0.47260323 0.020323992
2.7987623 0.46185556 0.025146246
2.7987688 0.4537656 0.025146246
2.7956529 0.44501111 0.026401162
2.7964392 0.43709394 0.026087642
2.7976167 0.42925325 0.025617123
2.7898355 0.41957673 0.028746963
2.7756698 0.4086602 0.034442902
2.7698572 0.39948282 0.03678143
2.7616861 0.38987783 0.04006815
2.7598999 0.38154998 0.040788531
2.746294 0.37099025 0.046259284
2.7360189 0.36113134 0.050391436
2.7233601 0.35089359 0.055481553
2.7031155 0.33935568 0.063620329
2.6855645 0.3284148 0.070676446
2.6759567 0.3189674 0.074540377
2.6640019 0.30917111 0.079347372
2.6578956 0.30043504 0.081804156
2.6403537 0.28982949 0.088856339
2.6316447 0.28077117 0.092358947
2.6487393 0.2759124 0.08549118
2.6385849 0.26665202 0.089574575
2.6523366 0.26115623 0.084050417
2.6419752 0.25191277 0.088216901
2.6422799 0.24432093 0.088096976
2.6311386 0.23505238 0.0925771
2.6149147 0.22511914 0.099099517
2.6043406 0.2160739 0.10335147
2.5939481 0.20711482 0.10753059
2.5830669 0.19815001 0.11190593
2.5614772 0.18783575 0.12058485
2.5492911 0.17885944 0.12548459
2.5473135 0.17124099 0.12628174
2.5391541 0.16287225 0.12956321
2.5257688 0.15392196 0.1349448
2.5230043 0.14629635 0.13605821
2.5554662 0.12056166 0.12302196
2.5395687 0.1041972 0.12941539
2.5139508 0.094366416 0.13971293
2.4994664 0.085733801 0.14553607
2.4960401 0.07819593 0.14691532
2.4921451 0.070636392 0.14848292
2.4906025 0.063300878 0.14910507
2.4850509 0.05564256 0.15133846
2.4800496 0.048060328 0.15335047
2.4862509 0.041369304 0.15086067
2.509017 0.035869554 0.14171422
2.5108182 0.0287458 0.14099276
2.5059817 0.021158293 0.14293861
2.4990256 0.013460129 0.14573634
2.4934366 0.0058876574 0.14798474
2.4915826 -0.0014297068 0.14873195
2.4981086 -0.0082608908 0.14611185
2.5089674 -0.014896452 0.14175034
2.5233197 -0.021416724 0.13598514
2.5356357 -0.028117791 0.13103819
2.542809 -0.035122365 0.12815785
2.5590911 -0.041783176 0.1216172
2.5668197 -0.048875049 0.1185137
2.5692225 -0.056206003 0.11755049
2.5641584 -0.06380181 0.1195879
2.5571558 -0.071427889 0.12240434
2.5509329 -0.078991756 0.12490737
2.5487614 -0.086418539 0.12578249
2.5566924 -0.093609922 0.12259769
2.5563874 -0.10100496 0.12272251
1.9317232 1.1053239 0.36746567
1.9317276 1.0997356 0.36746567
1.9317321 1.0941472 0.36746567
1.9339749 1.0899941 0.36655891
1.9373467 1.0865484 0.3651948
1.9407302 1.0830909 0.36382598
1.946555 1.0811578 0.36146832
1.9509476 1.0782893 0.35969067
1.9498128 1.0719312 0.36015224
1.9509566 1.0670015 0.35969067
1.9509611 1.0613576 0.35969067
1.9516174 1.0561165 0.35942662
1.9532533 1.0514742 0.35876572
1.9565289 1.0478263 0.35744071
1.9563695 1.0420666 0.35750705
1.9616294 1.0395941 0.35537815
1.9710103 1.0395784 0.35158002
1.9738009 1.03555 0.35045147
1.9768 1.03163 0.3492384
1.9927073 1.0353712 0.34279662
2.0061126 1.0375395 0.33736825
2.0158086 1.0374451 0.33344245
2.0092266 1.0277529 0.33611047
1.9992608 1.0161251 0.34014928
2.0434637 1.0359933 0.32224572
2.0676737 1.0440603 0.31244087
2.0819247 1.0462649 0.30667007
2.0890021 1.0442859 0.30380517
2.0981979 1.0434707 0.30008215
2.1152332 1.0470389 0.29318362
2.1225774 1.0450523 0.29021072
2.1391242 1.0481777 0.28351015
2.1620879 1.0547832 0.27421033
2.1769984 1.0567915 0.26817262
2.2006483 1.0635331 0.25859475
2.2025204 1.0581912 0.25783855
2.2103732 1.0561019 0.25465989
2.2137282 1.0515263 0.25330281
2.2242689 1.0508103 0.24903536
2.2455049 1.0557768 0.24043548
2.2789423 1.0671368 0.22689342
2.2921364 1.0675503 0.22155118
2.303098 1.066708 0.21711332
2.3046935 1.0608813 0.21646923
2.3094819 1.0567138 0.21453178
2.3218784 1.0564719 0.20951259
2.3555474 1.06715 0.19587708
2.3801844 1.0729926 0.18589991
2.3948257 1.0735853 0.17997169
2.4009824 1.0697831 0.17748022
2.4000013 1.0623398 0.17787975
2.4000068 1.0553975 0.17787975
2.3982885 1.0475942 0.17857814
2.398294 1.0406569 0.17857814
2.3991613 1.034145 0.17822897
2.4008923 1.0280519 0.17753017
2.4026256 1.0219498 0.17683029
2.397332 1.0124307 0.1789766
2.3813281 0.99777985 0.1854611
2.3860137 0.9931339 0.1835655
2.4159482 1.0004846 0.17144299
2.4242122 0.99740505 0.16809791
2.4222076 0.98944724 0.16891217
2.4093523 0.97642815 0.17412138
2.3925028 0.96162772 0.18094838
2.3878231 0.95254397 0.18284607
2.3727968 0.9387399 0.18893445
2.3730834 0.93200481 0.18882054
2.3759038 0.92641592 0.18768042
2.3782465 0.92059588 0.18673372
2.3804319 0.91469181 0.18585074
2.3795893 0.90742946 0.18619436
2.3829916 0.90204632 0.18481851
2.3875008 0.89712882 0.18299437
2.3998878 0.8956176 0.17797947
2.4070616 0.89177847 0.17507625
2.4070671 0.88481617 0.17507625
2.4064529 0.87758911 0.17532718
2.4088149 0.87162817 0.17437279
2.4123015 0.86612713 0.1729629
2.4213045 0.86291349 0.1693188
2.4291959 0.85918629 0.16612482
2.4311385 0.85295939 0.16534019
2.4310603 0.84589314 0.16537416
2.4376161 0.84152591 0.16272122
2.4340675 0.83304 0.16416079
2.4271636 0.82322919 0.16695929
2.4215941 0.81398952 0.16921723
2.4123516 0.80333054 0.1729629
2.4088759 0.79498768 0.17437279
2.4123626 0.78937578 0.1729629
2.4188597 0.78490746 0.17033374
2.4258237 0.78058064 0.16751552
2.4378786 0.77815175 0.16263533
2.4480648 0.77494717 0.15851218
2.4379575 0.76407492 0.16260791
2.4354756 0.75609815 0.16361535
2.4188929 0.74293041 0.17033374
2.4201512 0.73639309 0.16982651
2.4169745 0.72823691 0.1711154
2.4323361 0.72678185 0.16489613
2.4318354 0.71956575 0.16510111
2.4225981 0.70925391 0.16884446
2.4199283 0.70130587 0.16992807
2.4118598 0.69148982 0.1731981
2.4168227 0.6722455 0.17119485
2.4174113 0.66545224 0.17095858
2.4185846 0.65885091 0.17048579
2.4168394 0.6512754 0.17119485
2.4194717 0.64514875 0.17013097
2.4229891 0.6392951 0.16870868
2.4238739 0.63257122 0.1683526
2.4238796 0.62556088 0.1683526
2.4238851 0.61855066 0.1683526
2.4238908 0.61154032 0.1683526
2.4247766 0.60480392 0.16799611
2.4300764 0.59942377 0.16585207
2.4336243 0.59347785 0.16441739
2.4371827 0.58751452 0.16297853
2.4371884 0.58046579 0.16297853
2.440757 0.57447481 0.16153556
2.461498 0.57351053 0.15313822
2.5135648 0.58154321 0.13205445
2.539423 0.58172309 0.12158465
2.5628185 0.58105063 0.1121124
2.5886352 0.58092666 0.10165966
2.9919717 0.6428833 -0.061666012
2.9584002 0.62542903 -0.048067689
2.9517443 0.61514616 -0.045369625
2.9445004 0.60475099 -0.042433262
2.9393234 0.59492159 -0.040333867
2.943305 0.55336189 -0.041932702
2.9349349 0.54287231 -0.038540363
2.9192319 0.53072119 -0.032178521
2.8750691 0.5121069 -0.014291525
2.8376813 0.49528876 0.00085175037
2.8084791 0.48052463 0.012679935
2.8053398 0.47170553 0.013953924
2.8144288 0.46557912 0.01027596
2.8139837 0.45734242 0.010458827
2.7966321 0.44550839 0.017488003
2.7919619 0.43643841 0.019381762
2.7869196 0.42731836 0.02142632
2.7815092 0.4181523 0.02361989
2.7679124 0.40736917 0.029128551
2.7593579 0.39766553 0.032595277
2.7489796 0.38765457 0.036800623
2.744951 0.37892726 0.038434505
2.7314847 0.36843213 0.043890119
2.7244873 0.35922387 0.046726465
2.7126365 0.3491632 0.051527739
2.6903715 0.33728477 0.060546517
2.675698 0.3268882 0.066490889
2.6565464 0.3157914 0.074248791
2.6478257 0.30660415 0.077782512
2.6421452 0.2979829 0.080085278
2.6379766 0.28964651 0.081775784
2.6245697 0.27982125 0.087207198
2.6226687 0.27192461 0.087979555
2.623095 0.26440677 0.087809324
2.6283906 0.25764158 0.085667491
2.6182101 0.24849045 0.089792252
2.6161652 0.24061283 0.090622783
2.599422 0.23059511 0.097405076
2.6021011 0.22346178 0.096322656
2.5946939 0.21489453 0.099324465
2.5886655 0.20656011 0.1017679
2.5766871 0.19745824 0.10662091
2.5452697 0.18586063 0.11934507
2.5325906 0.17686319 0.12448156
2.5200374 0.16795498 0.12956715
2.5146213 0.15999928 0.13176262
2.5141633 0.15267184 0.13195026
2.5148132 0.14547724 0.13168955
2.492137 0.1139842 0.14088106
2.4651606 0.10399759 0.15180659
2.4962881 0.099985763 0.13920486
2.5019698 0.093319267 0.1369065
2.4955831 0.085481182 0.13949502
2.4929628 0.078024596 0.14055824
2.4900477 0.070557088 0.14174104
2.4943488 0.063724771 0.14000177
2.4803965 0.055356398 0.14565349
2.4761982 0.047848076 0.14735568
2.4906008 0.041796505 0.14152622
2.5172472 0.036569104 0.13073921
2.5228674 0.029690042 0.12846589
2.5166264 0.021968052 0.13099527
2.5086651 0.014169559 0.1342212
2.5006204 0.0064119548 0.13748085
2.4987552 -0.00093044341 0.13823843
2.5093555 -0.0075543821 0.13394868
2.518631 -0.014311031 0.13019538
2.5268621 -0.021174461 0.12686479
2.5392191 -0.027887098 0.12186384
2.546416 -0.034904368 0.11895216
2.5613484 -0.041635968 0.11290836
2.5675433 -0.0487983 0.11040246
2.5623426 -0.056412607 0.11251056
2.5593193 -0.063923605 0.11373723
2.5489907 -0.071641631 0.11792159
2.5433266 -0.079169989 0.1202172
1.9307821 1.1053232 0.36195707
1.9307866 1.0997349 0.36195707
1.931909 1.094867 0.36150074
1.9352752 1.0914319 0.3601287
1.9386532 1.0879848 0.35875183
1.9420432 1.0845256 0.35737014
1.9456067 1.081157 0.35591745
1.9488584 1.077571 0.3545922
1.9477251 1.0712172 0.35505652
1.9488674 1.0662899 0.3545922
1.9488719 1.0606493 0.3545922
1.9500152 1.0557129 0.35412735
1.9523017 1.0514734 0.35319591
1.9534494 1.046523 0.35272944
1.9557437 1.0422654 0.35179478
1.9601802 1.0392938 0.34998596
1.9667323 1.0375743 0.34731376
1.9646522 1.0306293 0.34816444
1.9688416 1.0274457 0.34645659
1.9933226 1.0363146 0.33646691
2.0014701 1.035368 0.33314371
2.0115876 1.0355352 0.32901633
2.0099761 1.0287657 0.32967585
2.0134463 1.0249707 0.32826149
2.0549548 1.0432432 0.31132275
2.0674593 1.0445176 0.30622137
2.0783181 1.0447738 0.30179155
2.0892918 1.0450329 0.29731488
2.1042297 1.0474843 0.29122043
2.117141 1.0487019 0.28595293
2.1261396 1.0476406 0.28228241
2.140172 1.0493481 0.27655762
2.160502 1.0544853 0.26826274
2.1747222 1.0561165 0.26246119
2.1889944 1.057694 0.25663853
2.1942091 1.0542178 0.25451243
2.2024212 1.052348 0.25116295
2.2097192 1.0499341 0.24818671
2.2198045 1.0489837 0.24407268
2.2403927 1.0536172 0.23567271
2.2747266 1.0654764 0.22166276
2.2901211 1.0670718 0.21538216
2.3028839 1.067187 0.21017581
2.3051622 1.0617169 0.2092483
2.3099549 1.0575483 0.20729446
2.3198254 1.0559916 0.20326847
2.3499782 1.0648632 0.19096518
2.3751543 1.0710019 0.18069291
2.3936591 1.0735843 0.17314339
2.3998127 1.0697821 0.17063427
2.4005582 1.0632111 0.17033231
2.3988378 1.0553966 0.1710366
2.3971202 1.0475934 0.17173982
2.3971257 1.0406561 0.17173982
2.3979926 1.034144 0.17138833
2.3997228 1.0280509 0.17068458
2.4014552 1.0219488 0.16997969
2.3961644 1.0124297 0.17214119
2.3784719 0.99696076 0.17936367
2.3809619 0.99126852 0.17834973
2.3884487 0.98794246 0.1752966
2.3914433 0.98244584 0.17407691
2.3937364 0.9766016 0.17314339
2.3977959 0.97157073 0.17148888
2.3919086 0.96189237 0.17389357
2.3895898 0.95389652 0.1748423
2.3729835 0.93935537 0.18162125
2.3733652 0.93265975 0.18146765
2.3747466 0.92641497 0.18090636
2.3751545 0.91972399 0.18074203
2.3741939 0.91241837 0.18113613
2.3716683 0.90442228 0.18216908
2.3762579 0.89958382 0.18029833
2.3906119 0.89900339 0.17444313
2.4041502 0.89798439 0.16892064
2.4128475 0.89479053 0.1653738
2.4111099 0.88705838 0.16608512
2.4078841 0.87870061 0.1674037
2.4076416 0.87162721 0.16750497
2.4059112 0.86392832 0.16821337
2.4131246 0.85998273 0.16527206
2.4239814 0.85750985 0.16084397
2.4252453 0.85101473 0.16033041
2.4204762 0.84203959 0.16227889
2.4242916 0.83658564 0.16072422
2.4207799 0.82814908 0.1621595
2.4230452 0.82205033 0.16123736
2.4219205 0.81458831 0.16169864
2.4164145 0.80540061 0.1639477
2.4146714 0.79772174 0.16466129
2.4181764 0.79209769 0.16323316
2.4247084 0.78762376 0.16057014
2.438818 0.7860204 0.15481484
2.4523807 0.78412712 0.14928257
2.4614134 0.78044283 0.14559913
2.4602637 0.77288687 0.1460706
2.4474063 0.76097953 0.1513195
2.441808 0.75182784 0.15360618
2.4257545 0.73887742 0.16015917
2.4215212 0.73031688 0.16188884
2.4311514 0.72678089 0.15796149
2.4281249 0.71866107 0.15919882
2.4166589 0.70756412 0.16387975
2.4167476 0.70060039 0.16384578
2.4089446 0.69088137 0.16703212
2.4138982 0.67164969 0.16501766
2.4115779 0.66387999 0.16596657
2.4121647 0.65709603 0.16572958
2.4121702 0.65011609 0.16572958
2.4182935 0.6451478 0.16323316
2.4265888 0.64085197 0.15985072
2.429749 0.63484931 0.15856338
2.4277349 0.62717199 0.15938765
2.4227047 0.6185497 0.1614424
2.4227102 0.61153936 0.1614424
2.4218371 0.6042552 0.1618011
2.4306619 0.59996867 0.15820235
2.4368794 0.59483409 0.15566766
2.4440236 0.58994412 0.15275496
2.4476142 0.58394718 0.1512922
2.453017 0.57846761 0.14908993
2.4714913 0.57680082 0.14155412
2.5060518 0.57971108 0.12745488
2.5282974 0.57887125 0.11838019
2.5478811 0.57714295 0.11039197
2.5618756 0.57372236 0.104684
2.9182987 0.61528957 -0.040727019
2.9142835 0.60580254 -0.039085984
2.9144287 0.59740567 -0.039142489
2.9188049 0.59008086 -0.040925384
2.8525434 0.54025877 -0.013878703
2.8793471 0.53841197 -0.024812341
2.8650727 0.52670789 -0.01898551
2.8453827 0.51382291 -0.010949135
2.8208516 0.49993637 -0.00093734264
2.8164678 0.49077573 0.00085389614
2.8026774 0.47952762 0.006483078
2.8051519 0.4719657 0.0054761171
2.8213623 0.46739516 -0.0011352301
2.8168976 0.45826653 0.00068891048
2.7911792 0.44463572 0.011184931
2.7836199 0.43496999 0.014271855
2.7720664 0.42452011 0.018988252
2.7606084 0.41415676 0.023665786
2.7455134 0.40312698 0.029827237
2.7387772 0.39384452 0.032578111
2.7296636 0.38413569 0.036299109
2.7256892 0.37547061 0.037923098
2.721251 0.36674032 0.039736509
2.714617 0.35762528 0.04244566
2.7091148 0.348757 0.044693112
2.6963024 0.33859584 0.049923062
2.680532 0.32798147 0.056359887
2.6517367 0.3151736 0.068110585
2.6363826 0.30485129 0.074377418
2.6242476 0.29516405 0.079330921
2.6160262 0.2861996 0.082687736
2.6090212 0.27748206 0.085548043
2.6062136 0.26948068 0.08669591
2.5976367 0.26058373 0.090197563
2.5975111 0.25304773 0.090251327
2.5911057 0.24455628 0.092867136
2.5822339 0.23573351 0.096489072
2.5750299 0.22720644 0.099430561
2.5780125 0.22018376 0.098216176
2.5763943 0.21249655 0.09887886
2.5787427 0.20536536 0.09792316
2.5735412 0.19720209 0.10004771
2.5395138 0.18526343 0.11393249
2.5237014 0.17587364 0.120386
2.5115001 0.1670312 0.12536633
2.5058491 0.15906739 0.1276741
2.4974177 0.15080136 0.13111627
2.4964004 0.14345574 0.1315335
2.4856234 0.11342153 0.13593972
2.4728851 0.1049166 0.14113891
2.4813111 0.098605976 0.13770378
2.4836476 0.091654137 0.13675272
2.4876752 0.084848389 0.13511193
2.485652 0.077465713 0.13593972
2.4869807 0.070391789 0.13539994
2.4941983 0.063815057 0.13245773
2.5082076 0.057759091 0.12674499
2.5022678 0.050027475 0.12917042
2.4989731 0.042534009 0.13051689
2.5239029 0.037152544 0.12034881
2.5315838 0.030397743 0.11721778
2.5232785 0.022505626 0.12060833
2.517168 0.014805287 0.1231035
2.5125723 0.0072351396 0.12498069
2.5200303 0.00041104853 0.12194061
2.5211236 -0.0068176389 0.12149692
2.5293167 -0.013669938 0.11815691
2.5354981 -0.020672202 0.11563754
2.5443389 -0.027582258 0.11203337
2.5497124 -0.034700222 0.10984361
2.5628157 -0.041522063 0.10450053
2.5684557 -0.048713997 0.10220206
2.561516 -0.056398213 0.10503554
2.5574849 -0.063944384 0.10668254
1.929841 1.1053225 0.35644853
1.9298455 1.0997342 0.35644853
1.9320861 1.0955874 0.35552901
1.9365788 1.092873 0.35368353
1.9410921 1.0901458 0.35182953
1.9444919 1.0866845 0.35043323
1.945631 1.081772 0.34996676
1.9459597 1.0763423 0.34983343
1.9467757 1.0712163 0.3494997
1.9467802 1.0655791 0.3494997
1.947922 1.0606486 0.34903216
1.9473578 1.0546561 0.34926599
1.9496392 1.0504192 0.34832978
1.9519258 1.0461721 0.34739131
1.9553636 1.0426141 0.34597957
1.9593893 1.0393928 0.34432614
1.9615344 1.0350121 0.34344602
1.9548258 1.0252962 0.34620631
1.963138 1.0246063 0.34279037
1.992748 1.0365502 0.33061695
2.0034702 1.0371304 0.32621014
2.0152352 1.0382636 0.32137442
2.0191329 1.0347122 0.31977379
2.0300655 1.0352459 0.31528038
2.0496254 1.0407281 0.30723977
2.0651717 1.0437772 0.30084944
2.076566 1.044348 0.2961663
2.0869668 1.0442842 0.29189181
2.1060503 1.0491039 0.28404713
2.1168771 1.0491358 0.27959746
2.1269109 1.0486581 0.27547389
2.1360626 1.0476279 0.27171302
2.1528108 1.0507818 0.26482856
2.171169 1.0547322 0.25728226
2.1838343 1.0554335 0.25207686
2.1912184 1.053162 0.24904275
2.2028017 1.0531412 0.24428207
2.2142987 1.0530062 0.23955715
2.2254913 1.0526403 0.23495722
2.2421682 1.0551577 0.22810227
2.2842965 1.0711842 0.21078289
2.3005087 1.0731874 0.20411921
2.3129358 1.073095 0.19901192
2.3152351 1.0676042 0.19806874
2.318459 1.062584 0.19674528
2.3249295 1.0592335 0.19408715
2.351356 1.0661675 0.18322384
2.3807757 1.0744874 0.17113006
2.3961759 1.0754672 0.16480052
2.4011102 1.0710357 0.16277403
2.3993883 1.0632101 0.16348422
2.3959465 1.0545297 0.16490161
2.395952 1.0475924 0.16490161
2.3959575 1.0406551 0.16490161
2.3968241 1.0341432 0.16454762
2.3985534 1.0280499 0.16383898
2.4002848 1.021948 0.16312933
2.3969636 1.0133835 0.16449702
2.3800271 0.99826944 0.17146277
2.3784163 0.99060321 0.17212725
2.3851442 0.98692119 0.16936332
2.3857183 0.98028469 0.16912955
2.3874314 0.97418141 0.16842741
2.3878033 0.96744037 0.16827685
2.3913147 0.96215725 0.16683555
2.393322 0.95615876 0.16601247
2.3894434 0.94744527 0.16760939
2.4012866 0.94592977 0.16274244
2.3906019 0.93412936 0.1671375
2.3912606 0.92750216 0.16686904
2.3815093 0.91621053 0.17088044
2.3770292 0.90732014 0.1727246
2.3801849 0.90182996 0.1714294
2.3992689 0.90331447 0.1635856
2.411417 0.90166354 0.15859336
2.4169145 0.89706099 0.15633559
2.41517 0.88931024 0.15705508
2.4084485 0.87944245 0.15982068
2.409946 0.87310266 0.15920746
2.4064739 0.86465895 0.16063714
2.4119487 0.85998189 0.15838861
2.4192855 0.85604739 0.15537453
2.4187899 0.84883606 0.15558052
2.4088132 0.83773994 0.15968442
2.4056339 0.82946897 0.16099393
2.4013095 0.82075381 0.16277403
2.4065127 0.81588769 0.16063714
2.409996 0.81030607 0.15920746
2.4117439 0.80401802 0.15849108
2.4161174 0.79875064 0.15669543
2.4249053 0.79517889 0.15308475
2.4323633 0.79104161 0.15002096
2.4354134 0.78516865 0.14876926
2.4532461 0.78491139 0.14144051
2.4536734 0.77796817 0.14126718
2.4602497 0.77333057 0.13856578
2.4530671 0.76353073 0.14152098
2.4446576 0.7533195 0.14498043
2.4351931 0.74277008 0.14887369
2.4258375 0.73231506 0.15272224
2.4258432 0.72529197 0.15272224
2.4193134 0.71592975 0.15540898
2.4082561 0.70499802 0.15995681
2.4105823 0.69884312 0.1590029
2.4135783 0.69290864 0.15777349
2.412348 0.67152143 0.15828621
2.4060562 0.66241133 0.16087496
2.4040384 0.65476835 0.16170669
2.4060259 0.64846623 0.16089201
2.4194529 0.64591599 0.15537453
2.4304554 0.6424973 0.15085375
2.4356585 0.63714075 0.14871705
2.4316056 0.62878978 0.15038544
2.421524 0.61854875 0.15453219
2.4215298 0.61153841 0.15453219
2.4189012 0.60370731 0.15561497
2.4312482 0.60051441 0.15054166
2.4410393 0.59646833 0.14651895
2.4530985 0.59305263 0.14156389
2.4590459 0.58773363 0.13912141
2.4645021 0.58223414 0.13688076
2.4805217 0.5798111 0.13029754
2.5016999 0.57879806 0.12159395
2.5216074 0.57729602 0.11341274
2.5369554 0.57437682 0.10710585
2.5492218 0.57049775 0.1020658
2.8956559 0.60972083 -0.040327191
2.89136 0.60022187 -0.038558364
2.893158 0.59231138 -0.039294839
2.890419 0.58323956 -0.038166165
2.8757124 0.57118237 -0.032117963
2.8672445 0.56075692 -0.028634429
2.8609278 0.55090761 -0.02603507
2.8527789 0.5406512 -0.022682548
2.8579061 0.53361785 -0.024787545
2.841222 0.52140057 -0.017926574
2.819015 0.50799072 -0.0087953806
2.8047426 0.49653879 -0.0029257536
2.8032672 0.48808232 -0.0023167133
2.8058 0.48053506 -0.0033551455
2.8132434 0.47406265 -0.0064121485
2.8151147 0.46632722 -0.0071789026
2.8087444 0.45680049 -0.0045574903
2.785327 0.4436771 0.005071044
2.7652955 0.43140134 0.013307691
2.7501583 0.42025635 0.019532561
2.7388747 0.40998706 0.024173379
2.7315924 0.40058956 0.027169347
2.7243485 0.39124206 0.030149579
2.7165902 0.38183561 0.033341289
2.7121792 0.3731198 0.035156965
2.7077825 0.36443236 0.036966681
2.7055926 0.35618332 0.037869453
2.7034063 0.34794757 0.038770676
2.696856 0.33893338 0.04146564
2.6804559 0.32819983 0.048209548
2.6483409 0.3148033 0.061412811
2.6315346 0.30423522 0.068323374
2.6226745 0.29511303 0.07196784
2.6182697 0.28678548 0.073780775
2.6077502 0.27748105 0.078107357
2.5914538 0.26730731 0.08480823
2.5823848 0.25837097 0.088538289
2.5705092 0.24905139 0.093422055
2.5713074 0.24173144 0.093096375
2.5551565 0.23187375 0.099737525
2.5335355 0.22130796 0.10862696
2.5304604 0.21353176 0.10989332
2.5321128 0.20643887 0.10921657
2.5606699 0.20304587 0.097480893
2.5594599 0.19546968 0.097980857
2.5257857 0.18361253 0.11182439
2.5100009 0.17426151 0.11831486
2.4971235 0.16536915 0.12361014
2.4878185 0.15699214 0.127437
2.4800305 0.14885178 0.13064063
2.4806948 0.14175069 0.13036978
2.502141 0.13702977 0.12155724
2.5121953 0.13091087 0.11742699
2.5197909 0.12446594 0.11430752
2.4822998 0.11319658 0.1297195
2.4816902 0.10594806 0.12997246
2.4770453 0.098298639 0.13188386
2.4765258 0.091077685 0.13209975
2.4815314 0.084381625 0.13004482
2.4795611 0.077017933 0.13085699
2.4829941 0.070144787 0.12944829
2.4911218 0.063654423 0.12610996
2.4975035 0.056972355 0.12348938
2.4968152 0.049687892 0.12377465
2.5128958 0.043700054 0.11716771
2.5303264 0.037719324 0.11000597
2.5419178 0.031221434 0.10524416
2.5296981 0.023027837 0.11026883
2.5227904 0.015252933 0.11311042
2.5265627 0.0081867278 0.11156237
2.5282099 0.00097182393 0.11088789
2.5352139 -0.0059482157 0.10801148
2.5377913 -0.013147488 0.10695469
2.5403733 -0.020361364 0.10589576
2.5470285 -0.027394108 0.10316288
2.5490115 -0.034676731 0.10235035
1.9289 1.1053218 0.35093999
1.9303939 1.1006985 0.35032296
1.9333843 1.0970316 0.34908605
1.937885 1.0943174 0.3472234
1.9424068 1.0915904 0.34535217
1.9446777 1.0874052 0.34441316
1.9435482 1.081053 0.34488297
1.9454973 1.0766484 0.34407741
1.9500546 1.0738693 0.34219134
1.9500592 1.0682198 0.34219134
1.9515316 1.0634829 0.34158325
1.948684 1.0560639 0.34276485
1.949828 1.0511205 0.34229267
1.9521167 1.0468719 0.3413465
1.9544102 1.0426134 0.34039831
1.9584339 1.0393921 0.33873338
1.958274 1.033619 0.3388015
1.9511822 1.0236773 0.34174109
1.9589953 1.022699 0.33850634
1.989625 1.0352678 0.32582021
2.001806 1.0367222 0.32077646
2.0156446 1.039084 0.31504583
2.0309212 1.0422095 0.30871964
2.0473886 1.0459423 0.30190021
2.0611515 1.0480076 0.29620117
2.0712192 1.0478561 0.29203272
2.0785117 1.0460495 0.28901386
2.0883763 1.045673 0.28492975
2.1094003 1.0515963 0.27622294
2.1196887 1.0513135 0.27196318
2.1299489 1.0509551 0.26771522
2.1354117 1.0478463 0.26545435
2.1438527 1.0463681 0.26195979
2.1636708 1.0511565 0.25375271
2.1754434 1.0513868 0.24887836
2.187686 1.0518075 0.24380928
2.2099996 1.0576605 0.2345686
2.2250373 1.0594293 0.2283417
2.2382216 1.0601089 0.22288263
2.2527585 1.0614395 0.21686333
2.2981737 1.0792016 0.1980536
2.3128011 1.0803221 0.19199705
2.3233335 1.0791917 0.18763649
2.3259857 1.073854 0.18654001
2.3269188 1.0676013 0.18615568
2.3278527 1.0613438 0.18577111
2.3530538 1.0676383 0.17533469
2.3784833 1.0739042 0.16480386
2.3930423 1.0744609 0.15877551
2.3982129 1.0701563 0.15663612
2.3982184 1.0632092 0.15663612
2.3947783 1.0545287 0.15806341
2.3947837 1.0475914 0.15806341
2.3947892 1.0406542 0.15806341
2.393935 1.0332918 0.15841961
2.3922224 1.0255128 0.15913117
2.3912473 1.018104 0.15953732
2.3891721 1.0101665 0.1603992
2.3811324 0.99936223 0.16373163
2.3782256 0.99106705 0.16493779
2.3717048 0.98106563 0.16764098
2.3726749 0.97465253 0.16724145
2.3775151 0.97005713 0.16523898
2.3806739 0.96464634 0.16393292
2.3887215 0.96149218 0.16060185
2.400028 0.95979846 0.15592098
2.4116914 0.95820296 0.15109241
2.4236197 0.95666111 0.14615405
2.4192035 0.9476341 0.1479857
2.4172039 0.93972266 0.14881599
2.3899777 0.92052281 0.16009521
2.3857944 0.91173577 0.16183019
2.3961239 0.90938926 0.15755415
2.4117305 0.9093008 0.15109229
2.4189858 0.905478 0.14808953
2.4227586 0.90010369 0.14652932
2.4192481 0.89157188 0.1479857
2.410507 0.88082397 0.15160835
2.4052951 0.8716253 0.15376931
2.4001055 0.86246657 0.15592098
2.4023349 0.85644579 0.15500003
2.4169371 0.85556018 0.14895427
2.4169426 0.84855914 0.14895427
2.4087987 0.83821476 0.15232968
2.4070652 0.83052886 0.15305007
2.4015856 0.82133806 0.15532172
2.4068282 0.81648445 0.15315282
2.4108117 0.81109881 0.15150517
2.4175603 0.80678439 0.14871228
2.4201984 0.80081594 0.14762199
2.428431 0.79701388 0.14421451
2.4448459 0.79633141 0.13741839
2.4505854 0.79145241 0.1350435
2.4622264 0.78879035 0.1302247
2.4626217 0.78180587 0.13006318
2.4599018 0.77364933 0.13119209
2.4497509 0.76273978 0.13539875
2.4426622 0.75302148 0.13833678
2.4343867 0.74290884 0.14176655
2.4317288 0.73488843 0.14286959
2.4281924 0.72656608 0.14433658
2.4216468 0.71718681 0.14705002
2.4105628 0.7062335 0.1516428
2.4128947 0.70007086 0.15067929
2.422334 0.69637811 0.14677215
2.4432187 0.69659674 0.13812494
2.4345586 0.68654227 0.14171398
2.4129169 0.67211509 0.15067929
2.4048831 0.66241038 0.15400887
2.4037328 0.65505755 0.15448761
2.4057205 0.6487534 0.15366662
2.4217863 0.64707124 0.14701521
2.4345922 0.64423251 0.14171398
2.4398155 0.63886797 0.13955307
2.4357471 0.63049567 0.14124036
2.4238627 0.61966527 0.14616454
2.4221077 0.61209071 0.14689386
2.417722 0.60370636 0.14871228
2.430063 0.60051346 0.14360368
2.4416361 0.59701407 0.13881314
2.4568064 0.59453785 0.13253272
2.465116 0.58991444 0.12909377
2.4724343 0.58494818 0.12606537
2.4856496 0.58167553 0.12059462
2.4942446 0.57697964 0.11703753
2.5084591 0.57385564 0.11115324
2.5222907 0.57053983 0.10542738
2.5309582 0.56568372 0.10184038
2.8892281 0.60840297 -0.046512723
2.8867335 0.59938562 -0.045476794
2.8867402 0.59102488 -0.045476794
2.8828249 0.58166862 -0.043852448
2.8655276 0.56897748 -0.03668654
2.8604615 0.55942011 -0.034585834
2.8530085 0.54930711 -0.031496644
2.850982 0.54055166 -0.030654788
2.8440979 0.53064561 -0.027801275
2.8276801 0.51852536 -0.020999551
2.8016636 0.50425863 -0.010222912
2.7960203 0.49484137 -0.0078831911
2.7971997 0.48701063 -0.008368969
2.8115263 0.48212907 -0.014299154
2.8173022 0.47526678 -0.016688466
2.796437 0.46253553 -0.0080451965
2.7791443 0.45069739 -0.00088131428
2.7609169 0.43876025 0.0066695213
2.7378483 0.4259102 0.016225219
2.7236371 0.41503146 0.022112727
2.7119343 0.40474823 0.026961565
2.7091863 0.39633861 0.02810216
2.7066004 0.38797721 0.02917552
2.6983149 0.37851438 0.032609344
2.69697 0.37043896 0.033168793
2.6937804 0.36202082 0.034492135
2.6890078 0.35332468 0.036471128
2.6851251 0.34482047 0.038081527
2.679143 0.33595791 0.040561318
2.659308 0.32465741 0.04877758
2.6324215 0.3122336 0.059913874
2.6199188 0.30244967 0.065093637
2.6111321 0.29336923 0.068734765
2.6111381 0.28580719 0.068734765
2.6041524 0.27709851 0.071630001
2.5795038 0.26558459 0.081839442
2.5652406 0.25585663 0.08774817
2.5512273 0.24625015 0.093553424
2.5473354 0.23826757 0.095167518
2.5354428 0.22911131 0.10009444
2.5216615 0.21974701 0.10580361
2.5092103 0.21065375 0.11096179
2.508446 0.2032786 0.1112808
2.5405066 0.20043579 0.098007202
2.5474014 0.1940088 0.095154643
2.5223265 0.18331715 0.10554028
2.5094967 0.17435354 0.11085534
2.4940398 0.16513228 0.11725819
2.4853704 0.15683866 0.12085032
2.4751415 0.14840719 0.12508833
2.4754975 0.14128047 0.12494338
2.4905443 0.13583779 0.11871517
2.4984288 0.12950674 0.11545265
2.5059447 0.12308991 0.11234283
2.4959466 0.11477163 0.11648524
2.4891214 0.10683867 0.11931396
2.4832129 0.099037275 0.12176287
2.479789 0.091512099 0.12318289
2.482168 0.084555134 0.12220013
2.4817779 0.077330768 0.12236392
2.4903512 0.070903778 0.11881649
2.4985993 0.064399272 0.11540353
2.5103445 0.058136985 0.11054254
2.5138161 0.051144645 0.10910749
2.5310068 0.045190275 0.10199177
2.5361457 0.038241819 0.099866271
2.547889 0.03173472 0.095006347
2.5386398 0.023723096 0.098838568
2.5340159 0.016068205 0.10075557
2.5358937 0.0088473856 0.099980474
2.536267 0.0015258193 0.099828243
2.5365484 -0.0058030933 0.09971416
1.9301928 1.1067756 0.34449911
1.9324366 1.1026322 0.34356463
1.9358096 1.0992048 0.34215891
1.9403237 1.0964907 0.34027696
1.9437245 1.0930384 0.33885968
1.9448636 1.0881269 0.33838612
1.9414681 1.0803348 0.33980507
1.9411491 1.0745034 0.33993995
1.9439045 1.0706042 0.33879197
1.943423 1.0646659 0.33899486
1.9460223 1.060647 0.33791202
1.9454585 1.0546546 0.33814913
1.9477378 1.0504177 0.33719993
1.9511644 1.0468712 0.3357718
1.9523122 1.0419137 0.33529472
1.9563292 1.038693 0.33362031
1.9584693 1.034314 0.3327291
1.9556271 1.0269243 0.33391708
1.9657416 1.0273111 0.32969809
1.9928461 1.0377654 0.31838936
2.0092182 1.0416969 0.3115592
2.0244548 1.0448635 0.30520302
2.0394487 1.047799 0.29894817
2.0551491 1.0510604 0.29239845
2.065254 1.0509773 0.28818363
2.0726006 1.0492393 0.28512001
2.078794 1.046795 0.28253746
2.0873575 1.0456722 0.27896607
2.1070378 1.0508355 0.27075571
2.1150043 1.0492429 0.2674334
2.1242561 1.0483291 0.26357484
2.1380222 1.0498953 0.25783241
2.1483338 1.0494528 0.25353158
2.1675398 1.0538907 0.24551934
2.1784439 1.0536304 0.24097121
2.1929824 1.0553044 0.23490667
2.2226043 1.0651404 0.22254813
2.240617 1.0684913 0.21503401
2.2530138 1.0687002 0.20986307
2.2635696 1.0678467 0.20546067
2.2951689 1.0781926 0.19227707
2.308502 1.0786338 0.18671572
2.3206818 1.0783871 0.18163568
2.3267064 1.0748298 0.17912394
2.3354099 1.0726399 0.17549443
2.3397887 1.0681481 0.17366958
2.3552308 1.0693588 0.1672281
2.3770804 1.0737785 0.1581133
2.3901594 1.0735816 0.1526581
2.3953195 1.0692784 0.15050715
2.3970485 1.0632082 0.14978814
2.39361 1.0545278 0.15122521
2.3936155 1.0475905 0.15122521
2.393621 1.0406532 0.15122521
2.3901925 1.0320176 0.1526581
2.3850648 1.0225667 0.15479994
2.3806887 1.0135127 0.15662837
2.3782663 1.0054336 0.15764135
2.3782718 0.99854076 0.15764135
2.3783987 0.99170625 0.15759075
2.3730803 0.9822731 0.15981209
2.3739314 0.97579646 0.15945935
2.3848598 0.97406459 0.15490162
2.3882842 0.96875441 0.15347511
2.4013216 0.96789956 0.14803755
2.417505 0.96842468 0.14128709
2.4265652 0.96558082 0.13750911
2.4387233 0.96410036 0.13243842
2.4407966 0.95797086 0.1315757
2.4378862 0.9495821 0.13279235
2.4274292 0.93782794 0.13715792
2.4225607 0.9286226 0.13919175
2.4152553 0.91836798 0.14224207
2.4228234 0.91469145 0.13908672
2.423584 0.90799952 0.13877165
2.4233379 0.90086663 0.13887668
2.4198236 0.89232743 0.14034522
2.4110746 0.88156879 0.14399815
2.4058576 0.87236214 0.14617717
2.4006631 0.86319506 0.1483469
2.3991871 0.85561669 0.148965
2.4084411 0.85251355 0.1451062
2.4157639 0.84855819 0.14205325
2.4106097 0.83943951 0.14420605
2.4093702 0.8319459 0.14472556
2.4145422 0.82705414 0.14257002
2.4191267 0.82189631 0.14065945
2.4266827 0.8178972 0.13750911
2.4269407 0.81096458 0.13740385
2.4275777 0.80417955 0.13714027
2.4266572 0.79678297 0.13752687
2.4382043 0.79422009 0.13271141
2.4393492 0.78759205 0.13223612
2.4508543 0.78490961 0.12743819
2.4496589 0.77735233 0.12793922
2.4440174 0.76813197 0.1302954
2.4378078 0.75873244 0.13288856
2.4325595 0.74972451 0.13508058
2.4269967 0.7406317 0.13740385
2.425236 0.73295534 0.1381408
2.4217165 0.72465408 0.1396116
2.4174554 0.71610737 0.14139163
2.4117122 0.70705879 0.14379013
2.4147136 0.70112598 0.14254022
2.4258525 0.69802022 0.13789523
2.4352288 0.6942389 0.13398564
2.4271255 0.68439424 0.1373688
2.4117401 0.67211413 0.14379013
2.4048667 0.66280031 0.14666021
2.4025602 0.65505672 0.14762473
2.4080224 0.64990687 0.14534819
2.4258919 0.6488111 0.13789523
2.4387474 0.64597535 0.13253403
2.4466829 0.64147329 0.12922573
2.4423337 0.63298714 0.1310426
2.4253254 0.62050462 0.1381408
2.4235673 0.61292112 0.13887668
2.4165428 0.60370541 0.14180958
2.4271088 0.59996581 0.13740385
2.4389145 0.5965445 0.13248086
2.4598377 0.59581923 0.12375391
2.4709606 0.59202969 0.11911583
2.4785802 0.58713377 0.11593938
2.4832032 0.58131123 0.11401308
2.4887726 0.57573771 0.11169183
2.5018575 0.57230198 0.10623538
2.5188828 0.56991649 0.099134922
2.5263143 0.56471825 0.096036911
2.913049 0.63191366 -0.065292478
2.906281 0.62167358 -0.062466025
2.885319 0.60774529 -0.053718209
2.8803382 0.5980891 -0.05163753
2.8778572 0.58910394 -0.050599813
2.8686631 0.57842839 -0.046761274
2.8516037 0.56583202 -0.039641738
2.8590662 0.55941904 -0.042752147
2.8516169 0.54930604 -0.039641738
2.8483737 0.54025543 -0.038285851
2.8435194 0.53083801 -0.036258101
2.8239062 0.51795769 -0.028073192
2.8043365 0.50520134 -0.019906402
2.8017051 0.49646661 -0.018805861
2.8005342 0.48808011 -0.018314719
2.805424 0.48106375 -0.020351887
2.7983637 0.47136548 -0.017403722
2.7718263 0.45743993 -0.0063303709
2.7583401 0.44649062 -0.00070178509
2.7402835 0.43464425 0.0068335533
2.7175457 0.42191747 0.016321778
2.7057326 0.41158995 0.021252394
2.6933994 0.40122452 0.02639997
2.6852677 0.39177826 0.029794931
2.6834977 0.38364437 0.030535817
2.6753485 0.37427071 0.033937931
2.674026 0.36626217 0.034492254
2.6730313 0.35832378 0.034909844
2.6558745 0.34736454 0.042069554
2.6418455 0.33708134 0.047924399
2.6394606 0.32899264 0.048921943
2.6429551 0.32196772 0.047466636
2.6290619 0.31186795 0.053264856
2.6186411 0.30244866 0.057614565
2.6044202 0.29244429 0.063549519
2.602731 0.28461498 0.064256549
2.5913179 0.27519989 0.069020152
2.5706701 0.26436245 0.077635884
2.5538852 0.25425622 0.084640265
2.5383306 0.24443841 0.09113133
2.5325496 0.23620129 0.093545198
2.5169818 0.22653356 0.10004187
2.5015142 0.21697086 0.10649645
2.4941211 0.2086589 0.1095829
2.4915967 0.20107585 0.1106385
2.4909604 0.1648958 0.1109159
2.4829247 0.15668529 0.11427021
2.4771523 0.14879435 0.1166805
2.4786716 0.14179528 0.11604917
2.4864261 0.13550341 0.11281693
2.4940958 0.12915716 0.10961998
2.5084932 0.12349999 0.10361683
2.5084088 0.11622244 0.10365427
2.5046446 0.10856554 0.10522687
2.496877 0.10052884 0.10846937
2.4891574 0.092541799 0.11169183
2.4851861 0.084953934 0.11335087
2.4781086 0.077104434 0.11630547
2.4974344 0.07163921 0.10824645
2.5069935 0.06522356 0.1042614
2.5205052 0.059080407 0.098627806
2.5222132 0.051914051 0.097917676
2.5316942 0.045337543 0.093965411
2.5387707 0.038527608 0.091016173
2.550544 0.032011852 0.086107731
2.5458925 0.024303436 0.088050246
2.5346329 0.016188696 0.092749476
2.5378735 0.0090479702 0.091400146
2.5357957 0.0015705824 0.092269301
1.9314889 1.1082329 0.33804333
1.9344854 1.1045721 0.33678544
1.9371159 1.1006575 0.33568156
1.9416384 1.0979437 0.33378232
1.9439098 1.0937634 0.33282936
1.9439143 1.0881261 0.33282936
1.9405205 1.0803339 0.33425796
1.9390721 1.0737897 0.33486867
1.9418228 1.0698917 0.33371425
1.9413419 1.0639571 0.33391821
1.9439367 1.0599395 0.33282936
1.944509 1.0546539 0.3325907
1.9467871 1.0504169 0.331635
1.9490703 1.0461699 0.33067703
1.9490749 1.0405177 0.33067703
1.9530804 1.0372978 0.32899511
1.9576776 1.0344127 0.32706445
1.9627928 1.0318127 0.32491624
1.9741004 1.0328937 0.3201648
1.9958529 1.0401375 0.31102288
2.0110099 1.0433412 0.30465347
2.0300457 1.0487475 0.29665351
2.0448906 1.0515808 0.29041523
2.0555949 1.0519068 0.28591764
2.066442 1.0522541 0.28136003
2.0735235 1.0503584 0.27838522
2.0800657 1.0481112 0.27563715
2.0945601 1.0503833 0.26954645
2.1095853 1.0528737 0.26323271
2.1174011 1.0511873 0.25994945
2.1270108 1.0504682 0.25591207
2.1462259 1.0550867 0.24783695
2.1546288 1.0535539 0.24430692
2.173552 1.0578187 0.23635483
2.1830902 1.0567856 0.23234749
2.2055006 1.0627755 0.22292954
2.228528 1.0689732 0.21325219
2.2495077 1.0739228 0.20443571
2.2571473 1.0715314 0.20122671
2.26863 1.0711643 0.19640231
2.2882693 1.0750973 0.18814933
2.3009982 1.0752373 0.18280101
2.3229389 1.0801815 0.17358077
2.3332524 1.0788746 0.16924793
2.3457797 1.0786675 0.16398448
2.3499629 1.0740414 0.16222847
2.3585272 1.0716608 0.15863073
2.3776164 1.0746512 0.15060914
2.38557 1.0718277 0.14726841
2.3924308 1.0684013 0.14438701
2.394156 1.0623351 0.143664
2.3924417 1.0545268 0.14438701
2.3924472 1.0475895 0.14438701
2.3924527 1.0406523 0.14438701
2.3890259 1.0320166 0.14582968
2.3821957 1.0217271 0.14870298
2.3761313 1.0118514 0.1512543
2.3720264 1.0029637 0.152982
2.3722734 0.99620235 0.15288049
2.377238 0.99170542 0.15079606
2.371922 0.98227215 0.15303272
2.3761587 0.97740185 0.1512543
2.3880913 0.97613633 0.14624119
2.3905456 0.97035956 0.14521194
2.4058464 0.97055209 0.13878298
2.4257116 0.97276831 0.13043559
2.4355164 0.9702419 0.12631702
2.4461269 0.96802711 0.12185943
2.4479308 0.96175098 0.12110376
2.4463949 0.95395756 0.12175167
2.4406381 0.94428039 0.12417364
2.4374359 0.9357748 0.12552202
2.4314854 0.92607152 0.12802529
2.4251676 0.91624117 0.13068306
2.4203892 0.90711987 0.13269377
2.4116318 0.89629996 0.13637698
2.4116375 0.88930738 0.13637698
2.4064155 0.88007712 0.13857412
2.4064212 0.8730998 0.13857412
2.4046891 0.86538875 0.13930452
2.4032073 0.85779274 0.13992953
2.412497 0.85469115 0.13602734
2.4198482 0.850734 0.13294005
2.414674 0.84159052 0.13511717
2.4204452 0.83694041 0.13269377
2.4213846 0.83030045 0.13230133
2.4239795 0.82432055 0.13121307
2.4318597 0.82043469 0.12790346
2.4346223 0.81447589 0.12674463
2.4317079 0.80626857 0.12797201
2.4277461 0.79766941 0.12963939
2.4334531 0.79283941 0.12724316
2.4292669 0.78417182 0.12900496
2.4208865 0.77392793 0.1325295
2.4341478 0.7719295 0.12695825
2.4285753 0.76277542 0.12930262
2.4259696 0.75476003 0.13040018
2.4225299 0.7464515 0.13184822
2.4205234 0.73868895 0.13269377
2.4222896 0.7323122 0.13195395
2.4152689 0.72275019 0.13490689
2.4152744 0.71574759 0.13490689
2.4193738 0.71020043 0.13318646
2.4205513 0.70359921 0.13269377
2.4322572 0.70067334 0.1277765
2.4324322 0.69368017 0.12770534
2.422832 0.68332386 0.13174236
2.4105632 0.67211318 0.13690102
2.403115 0.66260386 0.1400336
2.4026253 0.65547049 0.14024174
2.4167435 0.6531949 0.1343106
2.4335659 0.65172827 0.12724304
2.4416416 0.64730811 0.1238513
2.4454889 0.64147234 0.12223685
2.4390988 0.63233089 0.12492478
2.4231343 0.62018335 0.1316365
2.4223845 0.61292017 0.13195395
2.4153636 0.60370445 0.13490689
2.4241586 0.59941912 0.13121307
2.4353051 0.59580278 0.126531
2.4601507 0.59627724 0.11609173
2.4704092 0.59222531 0.11178291
2.4782925 0.58740699 0.10847223
2.4801433 0.5807656 0.10769665
2.4838481 0.57465446 0.10614216
2.4931498 0.57013834 0.10223556
2.5157518 0.5693717 0.092739105
2.8914077 0.62648261 -0.065115809
2.8869593 0.61691642 -0.063243508
2.878926 0.60643435 -0.05986464
2.8698378 0.5957247 -0.056042552
2.8616259 0.58529305 -0.05258882
2.8462627 0.5730921 -0.046129584
2.82763 0.56015933 -0.03829658
2.8256068 0.5186851 -0.037432551
2.8029683 0.50520027 -0.027916312
2.7999456 0.49637505 -0.026643395
2.7944713 0.48700848 -0.024340034
2.7887957 0.4776285 -0.021952271
2.7732131 0.46608046 -0.015401244
2.7453566 0.45193186 -0.0036923885
2.7332413 0.44135037 0.0014015436
2.7216032 0.43094113 0.0062948465
2.702682 0.41906592 0.014248729
2.6822729 0.40699151 0.022827983
2.6666856 0.39602271 0.029380918
2.6518309 0.38529238 0.035625696
2.6488249 0.37700537 0.03689158
2.6368492 0.36697742 0.041926503
2.6354313 0.35905835 0.042524934
2.6318815 0.35074171 0.044019341
2.6228428 0.34141737 0.04782021
2.6196494 0.33322379 0.049164534
2.6164641 0.32505018 0.050505638
2.6188211 0.31788522 0.049517751
2.6126652 0.30921042 0.052107215
2.6074543 0.3007347 0.054299474
2.5889871 0.2900362 0.062062144
2.5910549 0.28287542 0.061195731
2.5851719 0.27439752 0.063670278
2.5654581 0.26372325 0.071956873
2.5481761 0.25354844 0.079221487
2.5322707 0.24368781 0.085907817
2.5245998 0.23517591 0.089133501
2.5093913 0.22558036 0.095526695
2.49717 0.2165114 0.10066473
2.4854643 0.20758754 0.10558593
2.4801393 0.19963109 0.10782599
2.5009601 0.16631326 0.099089146
2.4965925 0.15852305 0.10092676
2.4944835 0.15103075 0.10181522
2.4954908 0.14391771 0.10139453
2.4918206 0.13626152 0.10293913
2.5025096 0.13023463 0.098450065
2.5148401 0.12432489 0.093271255
2.5166552 0.11722708 0.092510939
2.5166609 0.10993192 0.092510939
2.512058 0.1021741 0.094447494
2.5028968 0.093998641 0.098299503
2.4970067 0.086185724 0.10077703
2.4861419 0.077950895 0.10534465
2.4888325 0.070982665 0.10421646
2.4850492 0.063442811 0.10580862
2.497618 0.057282016 0.10052979
2.5179758 0.05167222 0.091978073
2.5348904 0.04567866 0.08487308
2.5430665 0.038937807 0.08144021
2.5547736 0.032401696 0.076523542
2.5539088 0.024936631 0.076889277
1.9305456 1.108232 0.33252192
1.9350398 1.1055439 0.33062083
1.937297 1.1013846 0.32966697
1.9418225 1.098671 0.32775253
1.9440956 1.0944892 0.32679194
1.9452362 1.0895725 0.32631087
1.9429694 1.0824881 0.32727253
1.9411932 1.0757262 0.32802653
1.9420068 1.0706027 0.32768393
1.9403938 1.0639564 0.32836878
1.9418539 1.0592328 0.32775253
1.9441271 1.055005 0.32679194
1.9452676 1.0500653 0.32631087
1.9464097 1.0451198 0.32582915
1.9464142 1.0394726 0.32582915
1.9498395 1.035906 0.32438064
1.9555721 1.0337161 0.3219552
1.9641496 1.0332067 0.31832522
1.9802918 1.0371827 0.31149209
1.9970441 1.0414289 0.30440068
2.0128062 1.0449898 0.29772866
2.0301151 1.0493735 0.29040152
2.0409677 1.0498611 0.28580821
2.0516961 1.0502126 0.28126764
2.0641522 1.0515077 0.27599555
2.1125195 1.0612663 0.25552201
2.1183264 1.0584472 0.25306523
2.1272538 1.0573654 0.24928749
2.1487906 1.0633522 0.24017036
2.1551785 1.060704 0.23746783
2.1672268 1.0611817 0.23236859
2.1743832 1.05887 0.22934067
2.1832511 1.0574634 0.22558796
2.201339 1.0610778 0.21793139
2.2266948 1.0685644 0.20719773
2.2448349 1.0719762 0.19951928
2.2526641 1.0696998 0.19620645
2.2627873 1.0686135 0.19192243
2.2675638 1.0646044 0.18990231
2.2872319 1.068501 0.18157703
2.3196476 1.0790375 0.16785443
2.3332808 1.0794889 0.16208446
2.3495994 1.0812685 0.1551773
2.3537982 1.0766373 0.15340185
2.3592851 1.0726492 0.15108097
2.3696883 1.0711631 0.14667857
2.3773501 1.0682116 0.14343679
2.3844106 1.0649093 0.14044976
2.3895514 1.0605935 0.1382755
2.3912735 1.054526 0.13754869
2.391279 1.0475887 0.13754869
2.3912845 1.0406514 0.13754869
2.3898187 1.0329856 0.13817179
2.3890073 1.0256506 0.13851762
2.3826206 1.0155928 0.14122403
2.3732831 1.0041372 0.14517975
2.3787401 0.99988723 0.14287174
2.3820281 0.99456394 0.14148176
2.3800874 0.98672402 0.14230585
2.3869197 0.98305988 0.1394155
2.4006968 0.98263276 0.13358486
2.4055352 0.9779346 0.13153875
2.4136806 0.97474897 0.12809241
2.4295833 0.97510874 0.12136185
2.4319558 0.96914959 0.12035978
2.4380257 0.96486771 0.11779225
2.4377763 0.95767927 0.11790025
2.437782 0.9506073 0.11790025
2.4368951 0.94313514 0.11827803
2.4386859 0.9368614 0.11752224
2.4363971 0.92877078 0.1184938
2.431572 0.91957796 0.12053895
2.4262607 0.91020095 0.12278998
2.4122009 0.89705729 0.12874484
2.41046 0.88930643 0.1294843
2.4069796 0.88082111 0.13096011
2.406985 0.87383866 0.13096011
2.4069905 0.86685622 0.13096011
2.4055054 0.85924828 0.1315912
2.4130673 0.85541832 0.12839234
2.4186666 0.85073304 0.12602401
2.4152458 0.84230912 0.12747455
2.4157524 0.83550692 0.12726259
2.417763 0.82931137 0.1264137
2.4240563 0.82482648 0.12375176
2.4316506 0.82082438 0.12053895
2.4405699 0.81730342 0.11676526
2.4331853 0.80731606 0.11989403
2.4239106 0.79663348 0.12382293
2.4269454 0.79077637 0.12254035
2.422024 0.78184056 0.12462628
2.4146342 0.7719909 0.12775719
2.4228408 0.7680943 0.1242851
2.4173172 0.75898695 0.12662601
2.4200842 0.75300515 0.12545693
2.4193361 0.74570596 0.12577605
2.4193416 0.73868799 0.12577605
2.4211068 0.73231125 0.12503111
2.4158416 0.72338271 0.12726259
2.4184797 0.71731901 0.1261481
2.4261229 0.71302056 0.12291467
2.4270551 0.7063098 0.12252247
2.4313653 0.70077586 0.12070012
2.4299767 0.69323921 0.12129045
2.4198887 0.6827172 0.12556338
2.4123793 0.67313361 0.12874484
2.4088938 0.66495478 0.13022268
2.4118912 0.65897095 0.1289562
2.4241068 0.65603459 0.12378728
2.433563 0.65211809 0.11978638
2.4371316 0.64622319 0.11827803
2.4389226 0.639732 0.11752224
2.434597 0.63126743 0.11935592
2.4237144 0.62074304 0.12396514
2.4229639 0.61347449 0.1242851
2.4159365 0.60425055 0.12726259
2.4212132 0.59887314 0.12503111
2.4308155 0.59479046 0.1209687
2.4582577 0.59606647 0.1093539
2.4689415 0.59214568 0.10483372
2.4770825 0.58740604 0.10138977
2.4770882 0.58022094 0.10138977
