# .PCD v0.7 - Point Cloud Data file format
VERSION 0.7
FIELDS x y z
SIZE 4 4 4
TYPE F F F
COUNT 1 1 1
WIDTH 1457
HEIGHT 1
VIEWPOINT 0 0 0 1 0 0 0
POINTS 1457
DATA ascii
2.6246548 -0.77134228 -0.22208798
2.6228614 -0.77864158 -0.22114718
2.6186774 -0.78535032 -0.21895671
2.6165936 -0.79255009 -0.21786427
2.6103499 -0.79870391 -0.21459711
2.6082795 -0.80587018 -0.21351147
2.604733 -0.81264877 -0.21165442
2.6161494 -0.82325709 -0.21761918
2.6243041 -0.83308339 -0.22187877
2.6310289 -0.84258163 -0.22539127
2.6322422 -0.85065222 -0.22602212
2.6292329 -0.85759342 -0.22444582
2.6256292 -0.86435521 -0.22255886
2.6254551 -0.87203908 -0.22246468
2.61905 -0.87798965 -0.21911299
2.6214492 -0.88637578 -0.22036397
2.6208568 -0.89392686 -0.22005105
2.6208627 -0.90164614 -0.22005105
2.6229658 -0.90997279 -0.22114718
2.6208751 -0.91708446 -0.22005105
2.616698 -0.92356694 -0.21786427
2.6208873 -0.93252289 -0.22005105
2.6229906 -0.94087422 -0.22114718
2.6259978 -0.94951332 -0.22271597
2.6347461 -0.95993495 -0.22728586
2.623009 -0.96405041 -0.22114718
2.6149459 -0.9692477 -0.2169292
2.6167409 -0.97751498 -0.21786427
2.6167471 -0.98522186 -0.21786427
2.6188431 -0.99360204 -0.21895671
2.6188493 -1.0013151 -0.21895671
2.6188555 -1.0090281 -0.21895671
2.6167717 -1.0160494 -0.21786427
2.6049969 -1.0198226 -0.21170604
2.5967505 -1.0247149 -0.20739222
2.5753884 -1.0251021 -0.19622266
2.5420692 -1.021265 -0.17880261
2.5013502 -1.0146739 -0.15751469
2.4668543 -1.0100126 -0.13947999
2.4545054 -1.0129342 -0.13302183
2.4545989 -1.0201942 -0.13306773
2.4425018 -1.023097 -0.12674129
2.4391332 -1.0290744 -0.12497747
2.423429 -1.0305496 -0.11676562
2.410708 -1.0330253 -0.11011314
2.4018843 -1.0368648 -0.10549784
2.3959973 -1.0417457 -0.10241783
2.3925066 -1.0474904 -0.10059023
2.3787508 -1.0493337 -0.093396902
2.3314774 -1.0383254 -0.068683982
2.3091221 -1.0366061 -0.056995749
2.2876472 -1.0350958 -0.045767903
2.2779655 -1.0380566 -0.04070437
2.2693 -1.0413594 -0.036172032
2.25792 -1.0435371 -0.030221105
2.2486348 -1.0464829 -0.025364876
2.2359717 -1.0480173 -0.018743157
2.2255704 -1.050392 -0.013303638
2.2159309 -1.0530159 -0.0082622766
2.1904097 -1.0490644 0.0050802231
2.1529398 -1.0400232 0.024668217
2.1415625 -1.0416245 0.030617833
2.1320193 -1.043928 0.035608649
2.1264937 -1.0478716 0.038499355
2.1182563 -1.0506295 0.04280746
2.1052446 -1.0512949 0.04961133
2.0941095 -1.0526928 0.055434108
2.0865002 -1.0555551 0.05941391
2.0793226 -1.0585614 0.063168168
2.0670936 -1.0593032 0.069562554
2.0505402 -1.0580581 0.078217149
2.0309265 -1.0553511 0.088471532
2.0131431 -1.05335 0.097769022
2.0036585 -1.0549926 0.10272896
1.9940029 -1.0565014 0.10777807
1.9874102 -1.0593548 0.11122644
1.8943871 -1.0446746 0.15985906
1.8937975 -1.0499711 0.16016948
1.8899765 -1.0537188 0.16216898
1.8869256 -1.0578146 0.16376591
1.8835237 -1.0617224 0.1655463
1.8813668 -1.0662165 0.16667593
1.8754534 -1.0688574 0.16976893
1.8679794 -1.0706943 0.17367756
1.8579295 -1.0712099 0.17893267
1.8505943 -1.0730203 0.1827687
1.8429469 -1.0746311 0.18676794
1.8304597 -1.0737542 0.19329679
1.8048223 -1.0661287 0.20669848
1.7872941 -1.0624925 0.21586192
1.7594563 -1.053459 0.23041362
1.7474951 -1.0524609 0.23666739
1.7424586 -1.0549889 0.23930186
1.738767 -1.0581897 0.24123341
1.7317535 -1.0596237 0.24490112
1.7247528 -1.0610235 0.2485621
1.7194514 -1.0632844 0.25133497
1.7115582 -1.0641298 0.25546241
1.7079964 -1.0672549 0.25732607
1.5339099 -1.0595448 0.34834713
1.5324799 -1.0632073 0.34909636
1.5317677 -1.0672911 0.34947038
1.5296278 -1.0705117 0.35059059
1.5296314 -1.0750157 0.35059059
1.5253663 -1.0769258 0.35282135
1.5115101 -1.0729542 0.36006474
1.5008415 -1.0708568 0.36564219
1.4914842 -1.0695052 0.37053418
1.4880074 -1.071741 0.37235308
1.4859883 -1.0748636 0.37341011
1.4873396 -1.0800819 0.3727057
1.4898043 -1.0860077 0.37141943
1.4915404 -1.0914881 0.37051398
1.4901209 -1.0949775 0.37125766
2.0672476 1.2803766 0.061961651
2.0911477 1.2907431 0.04938519
2.0946493 1.2869753 0.047544718
2.1014237 1.285422 0.04398191
2.1081932 1.2838255 0.040421486
2.1160316 1.282913 0.036298633
2.1235838 1.2817614 0.032326341
2.1256075 1.2768539 0.031263947
2.1296937 1.2733132 0.029115915
2.1431394 1.2759756 0.022042036
2.1512566 1.2750293 0.017772436
2.1650281 1.2777637 0.010527134
2.172523 1.2762963 0.0065852404
2.1794477 1.274412 0.0029433966
2.1838133 1.2708218 0.00064837933
2.1887186 1.2675558 -0.0019305944
2.199645 1.2681425 -0.0076785088
2.2142262 1.2710103 -0.015349984
2.2399945 1.2809384 -0.028909087
2.249084 1.2801092 -0.033689976
2.2615154 1.2813413 -0.040229797
2.2719808 1.2812619 -0.045735002
2.2869008 1.2839136 -0.053584456
2.2975724 1.2838264 -0.059198141
2.3045073 1.281355 -0.062844992
2.3110182 1.2785805 -0.066268682
2.31429 1.2737752 -0.0679878
2.3175709 1.2689563 -0.069711804
2.324156 1.266131 -0.073174357
2.3269138 1.2609463 -0.074622989
2.3324437 1.2574182 -0.077530384
2.3764634 1.2699578 -0.10069144
2.3902628 1.2711514 -0.10795105
2.3994844 1.2695551 -0.11280107
2.4107189 1.2690895 -0.11871064
2.4276595 1.2718996 -0.12762308
2.4397228 1.2717676 -0.13396871
2.4575138 1.2748854 -0.14332855
2.4920001 1.287529 -0.16147482
2.5002322 1.284902 -0.16580415
2.5287468 1.2938066 -0.18080747
2.5342879 1.2894938 -0.18372047
2.5445616 1.2878227 -0.18912411
2.5530691 1.2850983 -0.19359815
2.5661745 1.2848946 -0.20049191
2.578351 1.2840968 -0.20689678
2.5888391 1.2822933 -0.21241319
2.5970573 1.2791787 -0.21673489
2.6079953 1.2775043 -0.22248781
2.6290379 1.2812666 -0.23355854
2.6298485 1.2739499 -0.23398185
2.633177 1.2679844 -0.23573029
2.6325786 1.2598963 -0.23541224
2.6283591 1.2498831 -0.23318839
2.6283653 1.2421329 -0.23318839
2.6220584 1.2310575 -0.22986603
2.6111634 1.2176164 -0.22412932
2.6022778 1.205286 -0.21944988
2.5960951 1.1944081 -0.2161932
2.596689 1.1870558 -0.21650255
2.6166022 1.1895907 -0.22697854
2.6263008 1.1868088 -0.23207915
2.628716 1.180284 -0.23334694
2.6291747 1.1727606 -0.233585
2.6176722 1.1592523 -0.22752893
2.6169982 1.1511954 -0.22717083
2.6345813 1.1521666 -0.23642051
2.6366076 1.1453907 -0.2374835
2.6390417 1.1388023 -0.23876131
2.6387444 1.1308734 -0.23860145
2.6493015 1.1281834 -0.24415374
2.637239 1.1145847 -0.23780262
2.6308894 1.1037798 -0.23445821
2.6243706 1.0929322 -0.23102438
2.6400714 1.0925812 -0.23928356
2.6363537 1.0830549 -0.23732388
2.6516063 1.0823675 -0.2453469
2.6454928 1.0717232 -0.24212658
2.641232 1.061965 -0.23988128
2.6285195 1.0483787 -0.23318839
2.6199648 1.0367507 -0.22868347
2.6190732 1.0286217 -0.22821093
2.6211753 1.0218365 -0.22931385
2.6295996 1.0178466 -0.23374367
2.6348946 1.0124267 -0.23652673
2.6370223 1.0055875 -0.23764312
2.634907 0.996889 -0.23652673
2.6306803 0.98729014 -0.23429942
2.6328013 0.98044181 -0.23541224
2.6319005 0.9722923 -0.23493505
2.6270814 0.96248901 -0.23239577
2.6201823 0.95183945 -0.22876215
2.6106408 0.94012737 -0.22373819
2.616457 0.93483901 -0.22679543
2.6317804 0.93343043 -0.23485553
2.6348109 0.92690706 -0.23644698
2.6363323 0.91975331 -0.23724413
2.6271245 0.90826893 -0.23239577
2.6181307 0.89692438 -0.22766006
2.6135409 0.88738084 -0.22524166
2.6220355 0.88301957 -0.22970831
2.6283541 0.87775719 -0.23302984
2.6319809 0.87141299 -0.23493505
2.6250563 0.86098361 -0.23128784
2.616375 0.84992397 -0.22671676
2.6098289 0.83972549 -0.2232691
2.6098351 0.83203089 -0.2232691
2.614007 0.82589149 -0.22546113
2.616101 0.81895792 -0.22655964
2.624192 0.81421542 -0.23081374
2.6357622 0.8106935 -0.23689878
2.6347589 0.80255759 -0.23636734
2.6293261 0.79283929 -0.23350561
2.6191204 0.78145552 -0.22813213
2.6119654 0.77120817 -0.22436416
2.6098902 0.76277959 -0.2232691
2.6119778 0.75580668 -0.22436416
2.6215405 0.75139201 -0.22939277
2.6476827 0.75257254 -0.24314475
2.6493204 0.74531806 -0.24400342
2.641391 0.73484898 -0.23982787
2.6269715 0.72227156 -0.23223746
2.6149936 0.71058285 -0.22593176
2.6161931 0.70326257 -0.22655964
2.6161993 0.69554949 -0.22655964
2.6224895 0.6898489 -0.22986603
2.6224954 0.68211734 -0.22986603
2.613832 0.67166042 -0.22530437
2.6114562 0.66321266 -0.224051
2.6183212 0.65762949 -0.22766006
2.6204224 0.65055013 -0.22876215
2.6225262 0.64345956 -0.22986603
2.6246338 0.63635767 -0.23097181
2.6225386 0.62799644 -0.22986603
2.6183519 0.61903346 -0.22766006
2.6183581 0.6113143 -0.22766006
2.6225572 0.60480177 -0.22986603
2.6267695 0.59826839 -0.23207915
2.6273773 0.59069419 -0.23239577
2.6270826 0.5828644 -0.23223746
2.6246831 0.57445562 -0.23097181
2.6246893 0.56671786 -0.23097181
2.6268003 0.55954862 -0.23207915
2.6289146 0.55236793 -0.23318839
2.6310325 0.54517579 -0.23429942
2.6295297 0.53702521 -0.23350561
2.628933 0.52911747 -0.23318839
2.622025 0.5196017 -0.22955048
2.6208322 0.51156914 -0.22891963
2.6205392 0.50376821 -0.22876215
2.6205454 0.49604282 -0.22876215
2.6184564 0.48780724 -0.22766006
2.6163712 0.47958478 -0.22655964
2.6172733 0.47208473 -0.22703099
2.6142955 0.46366856 -0.22546113
2.6095414 0.45485827 -0.22295654
2.6163957 0.4487327 -0.22655964
2.6193907 0.44169477 -0.22813213
2.6205945 0.43423989 -0.22876215
2.6164141 0.42559358 -0.22655964
2.6107602 0.41665205 -0.22358167
2.6122537 0.40927413 -0.22436416
2.6164327 0.40245453 -0.22655964
2.6185303 0.39517692 -0.22766006
2.6185365 0.38745776 -0.22766006
2.614959 0.37901357 -0.22577477
2.6185486 0.37201938 -0.22766006
2.6227479 0.36512372 -0.22986603
2.6227541 0.35739216 -0.22986603
2.6227603 0.34966061 -0.22986603
2.6227665 0.34192905 -0.22986603
2.6248741 0.33458549 -0.23097181
2.6248803 0.32684773 -0.23097181
2.6248865 0.31911001 -0.23097181
2.6227911 0.31100282 -0.22986603
2.6206992 0.30290869 -0.22876215
2.6186101 0.29482746 -0.22766006
2.6186163 0.28710827 -0.22766006
2.6165309 0.27904612 -0.22655964
2.6123641 0.27066112 -0.22436416
2.617439 0.26376173 -0.22703099
2.62674 0.25748789 -0.23192084
2.6312671 0.25043285 -0.23429942
2.6323304 0.24283424 -0.23485553
2.6246541 0.23395085 -0.23081374
2.6134427 0.22460613 -0.22491241
2.6103253 0.21646377 -0.2232691
2.611372 0.20891222 -0.22381639
2.6111445 0.20118317 -0.22369349
2.6155539 0.19406545 -0.2260102
2.6174581 0.18659955 -0.2270087
2.6246972 0.17979282 -0.23081374
2.6271088 0.17235112 -0.23207915
2.6229081 0.16410336 -0.22986603
2.620816 0.15612674 -0.22876215
2.6166353 0.14792466 -0.22655964
2.6145532 0.13998005 -0.22546113
2.6145594 0.13227317 -0.22546113
2.6124806 0.12434733 -0.22436416
2.610405 0.11643413 -0.2232691
2.6041858 0.10812253 -0.21999419
2.604192 0.10044631 -0.21999419
2.6041982 0.09277007 -0.21999419
2.6042042 0.085093826 -0.21999419
2.6062822 0.077598497 -0.22108412
2.6042166 0.069741353 -0.21999419
2.6083694 0.0624028 -0.22217572
2.6048205 0.054435328 -0.22030556
2.6071959 0.046936288 -0.22155178
2.618813 0.040094152 -0.22766006
2.6167274 0.032229304 -0.22655964
2.6146452 0.024376988 -0.22546113
2.615546 0.016727149 -0.22593176
2.6188376 0.0092173964 -0.22766006
2.6197414 0.0015501231 -0.22813213
2.6121681 -0.0065878183 -0.22414505
2.6185572 -0.013955712 -0.22750282
2.6182644 -0.02168867 -0.22734559
2.6173742 -0.029447384 -0.22687399
2.6011515 -0.037861809 -0.21833682
2.6053436 -0.045360632 -0.22053897
2.600328 -0.053226821 -0.21789718
2.6074295 -0.060648158 -0.22162974
2.6136758 -0.0681381 -0.22491241
2.6147251 -0.07581231 -0.22546113
2.6198089 -0.083390087 -0.22813213
2.6180205 -0.091152251 -0.22718823
2.6084981 -0.099054888 -0.22217572
2.599339 -0.10689534 -0.21735442
2.5954227 -0.11461027 -0.21529114
2.6085165 -0.12212028 -0.22217572
2.6115782 -0.12978509 -0.22378302
2.6192534 -0.13744579 -0.2278173
2.6264586 -0.14515258 -0.23160434
2.6276684 -0.1528952 -0.23223746
2.6358287 -0.16067305 -0.23652673
2.632658 -0.1684197 -0.23485553
2.6369019 -0.17622134 -0.23708475
2.6340311 -0.18395625 -0.23557127
2.6270976 -0.19160986 -0.23192084
2.6213982 -0.19924575 -0.22891963
2.6232035 -0.2070111 -0.22986603
2.6295257 -0.21489853 -0.23318839
2.6331549 -0.22274879 -0.23509407
2.6327074 -0.23049577 -0.23485553
2.6305997 -0.23818442 -0.23374367
2.6263885 -0.2457839 -0.2315253
2.6242909 -0.25344181 -0.23041868
2.6190526 -0.26095429 -0.22766006
2.6119006 -0.26834911 -0.2238946
2.6169732 -0.2762917 -0.22655964
2.6169794 -0.28400472 -0.22655964
2.6190772 -0.29183105 -0.22766006
2.6169915 -0.29943079 -0.22655964
2.612824 -0.3068932 -0.22436416
2.6107481 -0.31446278 -0.2232691
2.6128364 -0.32229465 -0.22436416
2.6149275 -0.33013901 -0.22546113
2.6191142 -0.33814621 -0.22766006
2.6233144 -0.34617901 -0.22986603
2.6296365 -0.35440153 -0.23318839
2.6308491 -0.36224902 -0.23382294
2.6215336 -0.36922324 -0.22891963
2.6128793 -0.37619972 -0.22436416
2.6004429 -0.38278663 -0.21781957
2.5963278 -0.3900696 -0.21565187
2.60075 -0.39814281 -0.21797466
2.6078532 -0.40650582 -0.2217077
2.6108277 -0.4144924 -0.2232691
2.6150012 -0.42262143 -0.22546113
2.6185901 -0.43071237 -0.22734559
2.6230884 -0.43892458 -0.22970831
2.6286561 -0.44728425 -0.23263359
2.6328864 -0.45552149 -0.23485553
2.6315336 -0.46311927 -0.23414052
2.625515 -0.47014016 -0.23097181
2.6244698 -0.47774661 -0.23041868
2.6223755 -0.48521277 -0.22931385
2.6286931 -0.49376661 -0.23263359
2.6302066 -0.50171518 -0.23342633
2.6271996 -0.5090549 -0.23184168
2.6224 -0.51612663 -0.22931385
2.6168711 -0.52306592 -0.22640264
2.6192679 -0.53112602 -0.22766006
2.6246691 -0.53964603 -0.23049772
2.6255767 -0.54751766 -0.23097181
2.6126232 -0.55325508 -0.22415543
2.6060987 -0.5599274 -0.22072053
2.5988214 -0.56644058 -0.21688974
2.5960543 -0.5736469 -0.21543109
2.6104674 -0.58369112 -0.22300875
2.632041 -0.5950309 -0.23435235
2.6310406 -0.6026144 -0.23382294
2.6256258 -0.60941958 -0.23097181
2.6115816 -0.61465746 -0.22358167
2.6032884 -0.62085271 -0.2192167
2.5985758 -0.62765723 -0.21673489
2.5965228 -0.63493061 -0.21565187
2.6030111 -0.6438123 -0.21906126
2.617274 -0.65422988 -0.22655964
2.6253686 -0.66352499 -0.23081374
2.6277809 -0.67173958 -0.23207915
2.623579 -0.67863572 -0.22986603
2.6277933 -0.68722749 -0.23207915
2.6299081 -0.69540882 -0.23318839
2.6341426 -0.7040484 -0.23541224
2.6383905 -0.71271563 -0.23764312
2.6362741 -0.72003186 -0.23652673
2.6320453 -0.72687256 -0.23429942
2.6215234 -0.73229039 -0.22876215
2.5930796 -0.73361266 -0.21379924
2.576484 -0.73746884 -0.20506775
2.5785172 -0.74552965 -0.20613408
2.5979929 -0.7576822 -0.2163738
2.6153767 -0.76945412 -0.22551334
2.613893 -0.77680397 -0.22472966
2.6021371 -0.78165162 -0.21854365
2.5948822 -0.78753579 -0.21472502
2.5864036 -0.79307294 -0.21026266
2.5887444 -0.80128205 -0.21149063
2.5848083 -0.80790722 -0.20941722
2.5808284 -0.81449795 -0.20732081
2.612844 -0.83043909 -0.22415543
2.6126518 -0.83808649 -0.22405112
2.6150408 -0.84641993 -0.22530437
2.6132593 -0.85364461 -0.22436416
2.6091042 -0.86021256 -0.22217572
2.6091104 -0.86790109 -0.22217572
2.6070409 -0.87501228 -0.22108412
2.6091225 -0.88327801 -0.22217572
2.6091287 -0.89096642 -0.22217572
2.6070592 -0.89805925 -0.22108412
2.6079545 -0.90599942 -0.22155178
2.6070714 -0.91342402 -0.22108412
2.605005 -0.92049336 -0.21999419
2.6112382 -0.93002975 -0.2232691
2.6154125 -0.93898177 -0.22546113
2.6175075 -0.94732487 -0.22655964
2.6214023 -0.95623386 -0.22860467
2.6105695 -0.96059287 -0.22290444
2.6053376 -0.96664357 -0.22014976
2.6071203 -0.97488272 -0.22108412
2.6092021 -0.98322797 -0.22217572
2.6092083 -0.99091649 -0.22217572
2.6092143 -0.99860489 -0.22217572
2.6071448 -1.0056121 -0.22108412
2.6009433 -1.0112391 -0.21781957
2.5892074 -1.0149803 -0.21164441
2.5787351 -1.0190785 -0.20613408
2.5586901 -1.0198604 -0.1955893
2.5349126 -1.0192443 -0.18308187
2.5044768 -1.0161853 -0.16707301
2.4774358 -1.0141311 -0.15284944
2.4680686 -1.0181342 -0.14792025
2.4628634 -1.0235583 -0.14517999
2.4496322 -1.0260812 -0.13821876
2.4343016 -1.0277693 -0.13015378
2.4161043 -1.028325 -0.12058127
2.402447 -1.0304369 -0.11339605
2.3954287 -1.0349211 -0.10970235
2.3913143 -1.0404452 -0.10753572
2.39132 -1.0474913 -0.10753572
2.3827569 -1.0512961 -0.10302961
2.3369677 -1.0408601 -0.078947544
2.3066773 -1.0361078 -0.063015819
2.2833266 -1.0338634 -0.050733447
2.2714255 -1.0359473 -0.044472218
2.264257 -1.0398208 -0.04069972
2.2529218 -1.0420024 -0.034736156
2.2436731 -1.0449494 -0.029869795
2.2303002 -1.0461848 -0.022834778
2.2124534 -1.0455304 -0.013447046
2.1986864 -1.046434 -0.0062047243
2.1698551 -1.0410706 0.0089592934
2.1518722 -1.040024 0.018418312
2.1405003 -1.0416254 0.024401069
2.1323483 -1.0445104 0.028690457
2.1268184 -1.048455 0.031601071
2.1172059 -1.0506303 0.036658406
2.101887 -1.0503049 0.044716477
2.0890684 -1.0509675 0.051459789
2.0757792 -1.0513501 0.05845046
2.0692935 -1.0546286 0.061863542
2.0626011 -1.057778 0.065385342
2.0482428 -1.0574915 0.072938204
2.0328574 -1.0566623 0.081031203
2.0121448 -1.0533508 0.091925263
2.0005693 -1.0540463 0.098014474
1.9887813 -1.054577 0.10421562
1.9855732 -1.0589658 0.10590506
1.8875799 -1.0419029 0.15744555
1.8906124 -1.0489039 0.15585327
1.8834565 -1.0510488 0.15961844
1.8830485 -1.0563996 0.15983516
1.8804295 -1.0606769 0.16121471
1.8782787 -1.0651672 0.16234803
1.8732224 -1.0682204 0.16500908
1.8675851 -1.0709573 0.16797566
1.8583617 -1.0718821 0.17282778
1.8501987 -1.0732816 0.17712235
1.8396699 -1.0734456 0.18266088
1.8284584 -1.0732027 0.18855846
1.8095233 -1.0689714 0.19851708
1.7933798 -1.0660545 0.20700788
1.7753118 -1.0620537 0.21651053
1.7254276 -1.0567515 0.24274909
1.7190754 -1.0584759 0.24609131
1.7157201 -1.0617553 0.24785769
1.7081623 -1.0627694 0.25183368
1.70085 -1.0638708 0.25568068
1.5317163 -1.0586954 0.3446483
1.5307664 -1.0626392 0.3451497
1.5302935 -1.0668635 0.34540021
1.5288694 -1.0705123 0.34615076
1.5295866 -1.0754479 0.3457756
1.5267403 -1.0782216 0.34727401
1.5155505 -1.075881 0.35315925
1.5060047 -1.0744839 0.35818005
1.4928137 -1.0707819 0.36511743
1.4881377 -1.0722796 0.36757773
1.4852514 -1.0748641 0.36909711
1.4866021 -1.0800824 0.36838877
1.490081 -1.0866466 0.36656153
1.4931777 -1.0929897 0.36493528
1.4928864 -1.0972016 0.36509019
2.0627484 1.2779717 0.057791114
2.0841196 1.2866137 0.046477675
2.0890911 1.2838732 0.043847919
2.0980237 1.283811 0.039120793
2.1040983 1.2817507 0.03590703
2.1108882 1.2801397 0.03231442
2.1190939 1.279443 0.02797246
2.1238625 1.2763903 0.02545011
2.131012 1.274901 0.021667242
2.1397412 1.2744211 0.017048001
2.1476691 1.2733587 0.012853026
2.158957 1.2744666 0.0068789721
2.1656969 1.2725204 0.0033130646
2.1734059 1.2711682 -0.00076603889
2.1817589 1.2701898 -0.0051860809
2.1833134 1.2647567 -0.0060064793
2.2000308 1.2690948 -0.014855027
2.2148743 1.2721313 -0.022711515
2.2367933 1.2796026 -0.034314275
2.2469385 1.2794539 -0.039682984
2.2614334 1.2819997 -0.047354817
2.2756643 1.2842938 -0.054886937
2.2867229 1.2845138 -0.060739279
2.2964315 1.2838254 -0.065876603
2.3001256 1.2793424 -0.067829609
2.3049903 1.2755616 -0.070402503
2.3066201 1.2697608 -0.071262598
2.3098814 1.2649499 -0.072986245
2.3147874 1.2611226 -0.075580955
2.3217254 1.2584989 -0.079251528
2.3804655 1.273055 -0.11034286
2.3931518 1.2735749 -0.11705673
2.4005542 1.2708926 -0.12097287
2.4146004 1.2720795 -0.12840664
2.4295416 1.273708 -0.13631427
2.4447558 1.2754076 -0.14436638
2.4615712 1.2779461 -0.15326607
2.4870615 1.285392 -0.16675878
2.4951808 1.2827133 -0.17105424
2.5255408 1.2926915 -0.18712509
2.5330296 1.2894928 -0.19108665
2.5432982 1.2878218 -0.19652033
2.5498137 1.2839793 -0.19996655
2.5608869 1.2826483 -0.20582592
2.5689802 1.2795937 -0.2101078
2.5773666 1.2766534 -0.21454453
2.5875597 1.2746586 -0.21993792
2.601964 1.2749097 -0.22756076
2.6235201 1.2789712 -0.23897004
2.6243277 1.2716656 -0.23939431
2.6234324 1.2634375 -0.23891687
2.6186416 1.2531277 -0.23637724
2.6123776 1.2420615 -0.23305786
2.6103008 1.2332506 -0.23195493
2.6061502 1.2233596 -0.22975433
2.5961168 1.2104102 -0.22443914
2.5872118 1.1981078 -0.21972144
2.5893812 1.1915965 -0.2208668
2.5920236 1.1853155 -0.2222625
2.6117258 1.1877575 -0.23268998
2.6030293 1.1756206 -0.22808266
2.607676 1.1702911 -0.23053944
2.6079793 1.1627477 -0.23069668
2.5966556 1.1493847 -0.22469866
2.60552 1.1461309 -0.22938836
2.6131527 1.142216 -0.23342597
2.6047001 1.1303492 -0.22894788
2.6074162 1.1239891 -0.23038244
2.6142642 1.1196201 -0.23400462
2.6333179 1.1211021 -0.24408853
2.6169636 1.1054848 -0.23542714
2.6169696 1.0977647 -0.23542714
2.6098228 1.0866553 -0.23164022
2.6070571 1.077651 -0.23017287
2.6086462 1.0707009 -0.23101091
2.6151173 1.0660115 -0.23443341
2.6158054 1.0586122 -0.2347945
2.620898 1.0532308 -0.2374872
2.6125374 1.0416827 -0.23305786
2.6061554 1.0310808 -0.22967589
2.6073475 1.0239269 -0.23030388
2.609432 1.0171651 -0.23140419
2.6156931 1.0122466 -0.23471558
2.620935 1.0068414 -0.2374872
2.6209412 0.99910986 -0.2374872
2.6188507 0.99046528 -0.23637724
2.6146731 0.98093045 -0.23416245
2.6125925 0.97232091 -0.23305786
2.6146853 0.96550441 -0.23416245
2.6146915 0.95779145 -0.23416245
2.6102302 0.94819868 -0.23179758
2.6031201 0.93752575 -0.22803032
2.6047535 0.93052208 -0.22889185
2.6157608 0.92736948 -0.23471558
2.614573 0.91916513 -0.23408353
2.6139827 0.91121042 -0.23376775
2.6070004 0.90068305 -0.23006833
2.6037483 0.89168942 -0.22834361
2.5997961 0.88243687 -0.22624815
2.6082058 0.87808025 -0.23069668
2.608212 0.87038648 -0.23069668
2.6085148 0.86280811 -0.23085392
2.6043706 0.85351431 -0.22865677
2.5981758 0.84346104 -0.22537422
2.5940642 0.83423471 -0.2231946
2.5961275 0.82735717 -0.22428346
2.6002579 0.82123959 -0.22646666
2.6023309 0.81433547 -0.22756076
2.6085577 0.80894601 -0.23085392
2.6106441 0.80201006 -0.23195493
2.6106503 0.79430926 -0.23195493
2.6044257 0.78437328 -0.22865677
2.5970531 0.77406538 -0.22475088
2.5920653 0.76464272 -0.22210729
2.5879731 0.7555629 -0.21993792
2.5920775 0.74935102 -0.22210729
2.6035686 0.74565613 -0.22818685
2.6308742 0.74728715 -0.24263752
2.6324921 0.74007189 -0.24349082
2.6189599 0.72776937 -0.23632443
2.6053691 0.7155273 -0.22912693
2.5962253 0.70482957 -0.22428346
2.5982919 0.69784403 -0.22537422
2.6003616 0.69084728 -0.22646666
2.6024349 0.68383944 -0.22756076
2.6003737 0.67550695 -0.22646666
2.5962558 0.66653967 -0.22428346
2.5921504 0.65760076 -0.22210729
2.5945041 0.65067947 -0.22334993
2.6024654 0.64545822 -0.22756076
2.604542 0.63840866 -0.22865677
2.6086986 0.63197052 -0.23085392
2.6045542 0.62304401 -0.22865677
2.6024897 0.61475325 -0.22756076
2.6045663 0.60767937 -0.22865677
2.6087232 0.60119212 -0.23085392
2.6108098 0.59409046 -0.23195493
2.6072514 0.58538437 -0.23006833
2.604887 0.57703245 -0.22881341
2.6045971 0.56926763 -0.22865677
2.6087539 0.56271923 -0.23085392
2.615011 0.55671394 -0.23416245
2.6192014 0.5501194 -0.23637724
2.6192074 0.54239404 -0.23637724
2.613538 0.53318512 -0.23337328
2.6129484 0.52532256 -0.23305786
2.6096818 0.51677942 -0.23132551
2.6108773 0.50938261 -0.23195493
2.612967 0.50220191 -0.23305786
2.6108894 0.49398109 -0.23195493
2.6067381 0.48526713 -0.22975433
2.6005325 0.47608325 -0.22646666
2.599359 0.46813264 -0.22584224
2.5984809 0.46025828 -0.22537422
2.5970147 0.45225278 -0.22459495
2.6046948 0.44635007 -0.22865677
2.6082582 0.43947163 -0.23053956
2.6088581 0.43191126 -0.23085392
2.6047132 0.42330304 -0.22865677
2.6011717 0.41485026 -0.22677898
2.6026549 0.40749481 -0.22756076
2.6068053 0.40069404 -0.22975433
2.6088886 0.39343831 -0.23085392
2.6047437 0.3848913 -0.22865677
2.5950172 0.37523898 -0.22350538
2.5839894 0.36538455 -0.2176652
2.5821657 0.35740396 -0.21669686
2.582504 0.34985259 -0.21687281
2.5992603 0.34542856 -0.22573829
2.6024144 0.33835322 -0.22740448
2.6068604 0.33149791 -0.22975433
2.6068666 0.32380944 -0.22975433
2.6068728 0.31612098 -0.22975433
2.604805 0.30806783 -0.22865677
2.6048112 0.3003855 -0.22865677
2.6068912 0.29305562 -0.22975433
2.6089745 0.28571409 -0.23085392
2.6089807 0.27801949 -0.23085392
2.6069095 0.26999024 -0.22975433
2.6089928 0.26263031 -0.23085392
2.6110795 0.25525862 -0.23195493
2.6131694 0.24787518 -0.23305786
2.6131756 0.2401683 -0.23305786
2.6076815 0.23165646 -0.23014688
2.5997019 0.22282052 -0.2259202
2.5976453 0.21486378 -0.2248286
2.5976515 0.20720276 -0.2248286
2.6001625 0.19987884 -0.22615445
2.5986946 0.19201639 -0.22537422
2.6046071 0.18511224 -0.22850013
2.6066864 0.17769143 -0.22959757
2.6090662 0.17029527 -0.23085392
2.6069951 0.16235176 -0.22975433
2.6049273 0.15442094 -0.22865677
2.6007953 0.14626724 -0.22646666
2.5987372 0.13836801 -0.22537422
2.5987434 0.13070396 -0.22537422
2.5987496 0.1230399 -0.22537422
2.6008196 0.11558664 -0.22646666
2.5987618 0.10771179 -0.22537422
2.5987678 0.10004774 -0.22537422
2.598774 0.092383683 -0.22537422
2.596719 0.084533513 -0.22428346
2.5967252 0.076875538 -0.22428346
2.5905683 0.068697259 -0.22102177
2.5926254 0.06122458 -0.22210729
2.5926316 0.053578719 -0.22210729
2.5926375 0.045932874 -0.22210729
2.5988166 0.0387353 -0.22537422
2.5955858 0.030845717 -0.22366107
2.5947101 0.023132399 -0.2231946
2.597657 0.015668035 -0.22475088
2.6029727 0.0083304197 -0.22756076
2.6038661 0.00070551038 -0.22803032
2.5963805 -0.0073848367 -0.22406566
2.5985649 -0.014928371 -0.22521842
2.5982764 -0.022606 -0.22506249
2.5973992 -0.030309021 -0.22459507
2.583451 -0.03857059 -0.21721029
2.5916848 -0.045858562 -0.22156429
2.5887637 -0.05361037 -0.22001529
2.5937498 -0.061073817 -0.22265077
2.5958118 -0.06865827 -0.22373879
2.5927351 -0.076400734 -0.22210729
2.5956774 -0.083971895 -0.22366107
2.5980368 -0.091573477 -0.22490656
2.5948076 -0.099298134 -0.2231946
2.5956955 -0.10693541 -0.22366107
2.5927656 -0.11462998 -0.22210729
2.594826 -0.12225386 -0.2231946
2.5989509 -0.12987387 -0.22537422
2.6030889 -0.13751811 -0.22756076
2.6025038 -0.14519544 -0.22724795
2.604876 -0.15287255 -0.22850013
2.6084392 -0.16056843 -0.23038244
2.618726 -0.16833235 -0.23582292
2.6250293 -0.17611729 -0.23915553
2.6221828 -0.18382135 -0.23764586
2.6153083 -0.19144475 -0.23400462
2.605505 -0.19897251 -0.22881341
2.6052148 -0.20664929 -0.22865677
2.6135378 -0.21453699 -0.23305786
2.6192179 -0.22240071 -0.2360605
2.6198227 -0.23014262 -0.23637724
2.6177344 -0.23779774 -0.23526895
2.6093972 -0.2452125 -0.23085392
2.6052516 -0.25274336 -0.22865677
2.6017094 -0.2602753 -0.22677898
2.5975881 -0.26776007 -0.22459495
2.599067 -0.27549088 -0.22537422
2.6011374 -0.2832607 -0.22646666
2.6011434 -0.29093087 -0.22646666
2.6011496 -0.298601 -0.22646666
2.5970302 -0.30602327 -0.22428346
2.5929239 -0.31342205 -0.22210729
2.5888302 -0.32079744 -0.21993792
2.5897138 -0.32849169 -0.22040224
2.5964665 -0.33661294 -0.2239722
2.6029584 -0.34475446 -0.22740448
2.609483 -0.35293674 -0.23085392
2.6094892 -0.36063132 -0.23085392
2.6053433 -0.36797857 -0.22865677
2.597085 -0.37494504 -0.22428346
2.5868342 -0.38168436 -0.21885586
2.5827601 -0.38893467 -0.21669686
2.5850961 -0.39677274 -0.21792972
2.5921171 -0.40508571 -0.2216419
2.5950575 -0.41302633 -0.2231946
2.6033151 -0.42153895 -0.22756076
2.6125181 -0.43020156 -0.23242748
2.6196892 -0.43869454 -0.23621881
2.6252451 -0.44704697 -0.23915553
2.6273577 -0.45503235 -0.24027002
2.6239057 -0.46236771 -0.23844004
2.6137402 -0.46886373 -0.23305786
2.6127036 -0.47644028 -0.23250616
2.6085479 -0.48361182 -0.23030388
2.6182361 -0.49257016 -0.23542714
2.6158524 -0.49997047 -0.23416245
2.6050091 -0.50619996 -0.22842169
2.6023543 -0.51350927 -0.22701359
2.6030989 -0.52128786 -0.22740448
2.6004477 -0.52857637 -0.22599828
2.6096301 -0.53760684 -0.23085392
2.6117172 -0.54561669 -0.23195493
2.6006627 -0.55160928 -0.22610235
2.5951731 -0.55841255 -0.2231946
2.5777686 -0.56327319 -0.21398199
2.5778229 -0.57088166 -0.2140075
2.5955834 -0.58143348 -0.2234019
2.6178319 -0.5928492 -0.23517096
2.6214871 -0.60119593 -0.23710191
2.6171329 -0.60816193 -0.2347945
2.6035526 -0.61345994 -0.22760546
2.5941315 -0.61943048 -0.22261739
2.582948 -0.62502134 -0.21669686
2.5809186 -0.63225675 -0.2156198
2.583251 -0.64030796 -0.21685076
2.6017256 -0.65148437 -0.22662282
2.6096854 -0.660712 -0.23083138
2.6158168 -0.66962314 -0.23407221
2.6035168 -0.67485476 -0.22756076
2.6076686 -0.68337905 -0.22975433
2.6076748 -0.69106746 -0.22975433
2.6076808 -0.69875598 -0.22975433
2.6196051 -0.70898759 -0.23606038
2.6160243 -0.71593523 -0.23416245
2.6065135 -0.72156131 -0.22912693
2.6023774 -0.72832572 -0.22693539
2.5849743 -0.73207843 -0.21772397
2.5718353 -0.73670101 -0.21076882
2.5664673 -0.74304187 -0.20792556
2.5826633 -0.75439751 -0.21649158
2.5974941 -0.7655251 -0.22433543
2.5957358 -0.77276015 -0.2234019
2.5865662 -0.77818465 -0.21854699
2.5718715 -0.78219712 -0.21076882
2.5729358 -0.790043 -0.21132886
2.5801804 -0.79945076 -0.2151587
2.5815809 -0.80741298 -0.21589649
2.5779688 -0.81409216 -0.21398211
2.5952885 -0.82620382 -0.22314262
2.5907006 -0.83264494 -0.22071207
2.5930507 -0.84090757 -0.22195208
2.5933499 -0.8486315 -0.22210729
2.5933561 -0.85627735 -0.22210729
2.5948298 -0.86432731 -0.22288382
2.5865417 -0.86966968 -0.21849549
2.5854785 -0.87699461 -0.21792972
2.5925007 -0.88661087 -0.2216419
2.5851991 -0.89215612 -0.21777546
2.5881233 -0.90062416 -0.21931946
2.5872531 -0.90799785 -0.21885586
2.5831785 -0.91441798 -0.21669686
2.5872653 -0.9232533 -0.21885586
2.5910723 -0.93202817 -0.2208668
2.600286 -0.94247329 -0.22573829
2.6058083 -0.95183671 -0.22865677
2.6058145 -0.95951903 -0.22865677
2.601681 -0.96590328 -0.22646666
2.6037552 -0.97422802 -0.22756076
2.6016932 -0.98124361 -0.22646666
2.5996344 -0.98824787 -0.22537422
2.597579 -0.99524117 -0.22428346
2.5914202 -1.0008748 -0.22102177
2.5832512 -1.0058063 -0.21669686
2.575134 -1.0107069 -0.21239901
2.56305 -1.0142221 -0.20600283
2.5485275 -1.0168366 -0.19831622
2.5340283 -1.0193734 -0.19064224
2.5045099 -1.0166278 -0.17502236
2.4862304 -1.0176301 -0.16534841
2.4740303 -1.0206642 -0.15889084
2.4637573 -1.0243101 -0.15345275
2.44823 -1.0260154 -0.14523506
2.4294848 -1.0264683 -0.13531482
2.4113503 -1.0270327 -0.12571776
2.3997469 -1.0298851 -0.11957622
2.3907452 -1.0336303 -0.11481082
2.3840394 -1.0381778 -0.11126018
2.3823111 -1.0445551 -0.11034286
2.3739307 -1.0484043 -0.10590637
2.3369193 -1.0412847 -0.086322904
2.3067701 -1.0365843 -0.07036984
2.2779615 -1.0322254 -0.055126309
2.2626815 -1.0329758 -0.047039747
2.2560081 -1.0370202 -0.043506503
2.2467299 -1.0399932 -0.03859508
2.2377453 -1.043029 -0.033839226
2.2248678 -1.0444466 -0.027023911
2.2163429 -1.0475509 -0.022511244
2.2014532 -1.0480087 -0.014631391
2.1690912 -1.0411999 0.0024918318
2.1516118 -1.0403589 0.011741519
2.1394382 -1.0416262 0.018184304
2.1326778 -1.0450935 0.021763325
2.1271434 -1.0490392 0.024693847
2.1175234 -1.0512134 0.029785633
2.1035423 -1.0514619 0.037184596
2.0884123 -1.0511323 0.045191288
2.0664604 -1.0477499 0.056806803
2.0599062 -1.0509726 0.060276628
2.0536387 -1.054283 0.063594699
2.0455222 -1.0567367 0.067891121
2.0329292 -1.0571454 0.074555278
2.0123818 -1.0539066 0.08542788
1.9995767 -1.0540471 0.092204213
1.9861876 -1.0538465 0.099289775
1.9817066 -1.0576469 0.10166264
1.884163 -1.0407311 0.15327567
1.8870618 -1.047662 0.15174448
1.880875 -1.0502611 0.15501964
1.8821143 -1.0564003 0.15436637
1.8794966 -1.0606776 0.15575349
1.8755041 -1.0642697 0.15786779
1.8662488 -1.065257 0.1627661
1.8613553 -1.0683417 0.16535711
1.8539858 -1.0701686 0.16925782
1.8471954 -1.0722412 0.17285228
1.8366953 -1.0724108 0.17840886
1.8263868 -1.0726153 0.1838643
1.8149717 -1.0721966 0.18990499
1.7998054 -1.0697937 0.19792998
1.7845943 -1.0672784 0.20597857
1.714771 -1.0515991 0.24292254
1.7122357 -1.0553111 0.24426579
1.7089648 -1.0586169 0.2459982
1.7043962 -1.0612098 0.2484169
1.6965407 -1.0620086 0.25257444
1.6828171 -1.0595894 0.2598359
1.5300033 -1.0581301 0.34070438
1.5290548 -1.062072 0.34120798
1.5288205 -1.0664362 0.34133387
1.5281109 -1.0705129 0.34171104
1.5295414 -1.0758806 0.34095633
1.528118 -1.0795209 0.34171104
1.5196165 -1.0788263 0.34620988
1.5112089 -1.0781394 0.35065889
1.4941468 -1.0720623 0.35968554
1.4882681 -1.0728188 0.36279684
1.4845146 -1.0748647 0.36478412
1.4858646 -1.080083 0.36407185
1.4885685 -1.0861608 0.3626436
1.4906037 -1.0918319 0.36156887
1.4915121 -1.0967997 0.3610903
2.0617235 1.2779709 0.051791787
2.0820236 1.2858815 0.040981293
2.0862777 1.2826533 0.038717866
2.0942962 1.2819742 0.03444922
2.0976586 1.2780776 0.032660842
2.1046042 1.27659 0.028963923
2.1189554 1.2800595 0.02132225
2.1291232 1.2806331 0.015909076
2.1425753 1.2833441 0.0087463856
2.1454909 1.2789577 0.0071960688
2.1525548 1.277305 0.0034362078
2.1600213 1.2758765 -0.00053834915
2.1653373 1.2729902 -0.0033670664
2.1745954 1.2726519 -0.008295536
2.1884553 1.2752558 -0.015675426
2.1987514 1.2754678 -0.021156907
2.203805 1.2722352 -0.023845792
2.2137737 1.2721305 -0.02915287
2.237442 1.2807269 -0.041756868
2.2478428 1.2807391 -0.047294021
2.2616119 1.2828238 -0.054625154
2.2697995 1.2813075 -0.058983326
2.279747 1.2808477 -0.06427896
2.2888668 1.2798117 -0.069133759
2.2925384 1.2753348 -0.071086407
2.2973738 1.2715564 -0.073658943
2.2989936 1.2657691 -0.0745188
2.3016946 1.260635 -0.075954676
2.3103695 1.2591286 -0.080572248
2.3798602 1.273399 -0.11757302
2.3949647 1.2753605 -0.12561524
2.4017103 1.2722825 -0.12920499
2.4134009 1.2720785 -0.13542867
2.4300523 1.2747142 -0.14429462
2.4464126 1.2770815 -0.15300536
2.4632592 1.2796346 -0.16197515
2.4868126 1.2859609 -0.17451692
2.4958436 1.2838053 -0.17932391
2.5172939 1.2886943 -0.19074547
2.5275798 1.2871088 -0.19622064
2.5390754 1.286147 -0.20234025
2.5479801 1.2836593 -0.20707965
2.5549505 1.2800367 -0.21078908
2.5619593 1.276394 -0.21451867
2.5679979 1.2721732 -0.21773183
2.5760922 1.2690487 -0.22203958
2.5883267 1.268145 -0.22855246
2.6078839 1.2711594 -0.23896563
2.6153355 1.2674973 -0.24293101
2.6155405 1.2598851 -0.24303699
2.6086946 1.2484919 -0.23938739
2.5938292 1.2328634 -0.23146689
2.5909986 1.2237034 -0.22995603
2.5883694 1.2146664 -0.22855246
2.5839946 1.20473 -0.22621942
2.5777764 1.1938583 -0.22290444
2.5799317 1.1873636 -0.22404897
2.5822647 1.1809481 -0.22528827
2.5904489 1.1775175 -0.22964394
2.5863593 1.167785 -0.22746265
2.5872421 1.1605953 -0.22792947
2.5854959 1.1520765 -0.2269963
2.57494 1.1391572 -0.22137105
2.5795865 1.1338668 -0.2238425
2.5850275 1.1289423 -0.22673726
2.5861039 1.1218388 -0.2273072
2.5904977 1.1163508 -0.22964394
2.5867834 1.1068974 -0.22766268
2.5950301 1.1032422 -0.23205137
2.599041 1.0975053 -0.23418427
2.5990472 1.0898343 -0.23418427
2.590528 1.0781215 -0.22964394
2.5843954 1.0675837 -0.22637475
2.5844016 1.059956 -0.22637475
2.585825 1.0529876 -0.22712958
2.5908453 1.0476736 -0.22979999
2.6008549 1.0446216 -0.23512745
2.6008608 1.0369453 -0.23512745
2.5977697 1.0278646 -0.23347783
2.5998399 1.0211273 -0.23457718
2.6019132 1.0143795 -0.2356782
2.6039906 1.0076207 -0.236781
2.6071088 1.0013096 -0.23843849
2.607115 0.99361503 -0.23843849
2.602973 0.98411322 -0.23622942
2.6009097 0.97553539 -0.23512745
2.6009159 0.96785915 -0.23512745
2.6009221 0.96018291 -0.23512745
2.6040332 0.95382285 -0.236781
2.6016731 0.94514155 -0.23552084
2.5946057 0.93450642 -0.23175395
2.5947587 0.92690969 -0.23183215
2.591682 0.91798151 -0.2301904
2.5881736 0.90889478 -0.22831869
2.5878873 0.90113747 -0.228163
2.5886247 0.89379466 -0.22855246
2.5900943 0.88674068 -0.22933197
2.5882275 0.8783524 -0.22833455
2.5986285 0.87481332 -0.23387027
2.6007001 0.86795247 -0.23497021
2.6004112 0.86016238 -0.23481309
2.5900273 0.84848249 -0.22927988
2.582829 0.83808267 -0.22544336
2.5784736 0.82880437 -0.22312081
2.58255 0.8227278 -0.22528827
2.5886855 0.81739664 -0.22855246
2.5927939 0.81127787 -0.23073709
2.5989783 0.80589831 -0.23402727
2.5989845 0.79822814 -0.23402727
2.5969279 0.78981149 -0.23292887
2.5907655 0.77993333 -0.22964394
2.5814283 0.76896131 -0.22466838
2.576498 0.75960028 -0.22203958
2.572453 0.7505784 -0.21988237
2.5785403 0.74509776 -0.22312081
2.5890391 0.74109948 -0.22870827
2.611578 0.74114776 -0.24070752
2.6157596 0.73485291 -0.24293101
2.5986526 0.7213949 -0.23381782
2.5899415 0.71082866 -0.22917593
2.5826471 0.70078051 -0.22528827
2.5867362 0.69449174 -0.22746265
2.588789 0.68752015 -0.22855246
2.5887952 0.67988026 -0.22855246
2.5847113 0.67094147 -0.22637475
2.5786071 0.66139102 -0.22312081
2.5745554 0.6525166 -0.22096014
2.5768783 0.64563417 -0.22219384
2.5826957 0.63980675 -0.22528827
2.5867848 0.63342166 -0.22746265
2.59582 0.62849569 -0.2322706
2.586797 0.61815417 -0.22746265
2.5894349 0.61129403 -0.22886407
2.5909057 0.60407889 -0.22964394
2.5970805 0.59821022 -0.23292887
2.6012154 0.59172356 -0.23512745
2.5956211 0.58246672 -0.23214519
2.5932763 0.57415068 -0.23089337
2.592989 0.56641686 -0.23073709
2.597111 0.55988991 -0.23292887
2.6012461 0.55334234 -0.23512745
2.6012521 0.5456661 -0.23512745
2.5971293 0.53689778 -0.23292887
2.5915527 0.52777362 -0.22995603
2.5971415 0.52156973 -0.23292887
2.5992105 0.51443303 -0.23402727
2.6012826 0.50728488 -0.23512745
2.6012888 0.49960867 -0.23512745
2.5951064 0.49040523 -0.23183215
2.5889533 0.48124549 -0.22855246
2.5828292 0.47212914 -0.22528827
2.5837092 0.46471527 -0.22575366
2.5869246 0.45784518 -0.22746265
2.5854709 0.44987264 -0.22668529
2.5930865 0.44398633 -0.23073709
2.5930924 0.43633446 -0.23073709
2.5930986 0.42868254 -0.23073709
2.5910518 0.42057845 -0.22964394
2.5910578 0.4129326 -0.22964394
2.5890141 0.40484747 -0.22855246
2.5919495 0.39782682 -0.2301122
2.5966566 0.39115807 -0.23261535
2.5904961 0.38222882 -0.22933197
2.5794177 0.37234005 -0.22342992
2.573339 0.36351433 -0.22019005
2.5625708 0.35380271 -0.21445322
2.5658569 0.34687629 -0.21619976
2.5775075 0.3415255 -0.22239983
2.5806108 0.33450127 -0.22404897
2.5890751 0.32844943 -0.22855246
2.591131 0.32118237 -0.22964394
2.59319 0.31390387 -0.23073709
2.5931962 0.30625197 -0.23073709
2.5929089 0.29854932 -0.23058093
2.590745 0.29052928 -0.22942555
2.5970364 0.28393483 -0.23277211
2.5939057 0.27575681 -0.23110211
2.5891237 0.26733103 -0.22855246
2.5911796 0.26001561 -0.22964394
2.5911856 0.25236976 -0.22964394
2.5973613 0.24566376 -0.23292887
2.5994303 0.23830786 -0.23402727
2.5939913 0.22984037 -0.2311281
2.5840492 0.22075894 -0.22583127
2.5799811 0.21256164 -0.22366214
2.5759256 0.2043902 -0.22149968
2.576946 0.19692606 -0.22203958
2.5798542 0.18970448 -0.22358477
2.584517 0.18269166 -0.22606421
2.5889039 0.17561665 -0.22839677
2.5933058 0.16851765 -0.23073709
2.5933118 0.16086572 -0.23073709
2.593318 0.15321383 -0.23073709
2.5912709 0.14532787 -0.22964394
2.589227 0.13745442 -0.22855246
2.5871861 0.12959343 -0.22746265
2.5851488 0.12174484 -0.22637475
2.5871983 0.11432588 -0.22746265
2.5851607 0.10648936 -0.22637475
2.5851669 0.098861665 -0.22637475
2.5851729 0.091233939 -0.22637475
2.5811017 0.083237737 -0.22420371
2.5811076 0.075622052 -0.22420371
2.5750213 0.06749177 -0.22096014
2.577055 0.060059324 -0.22203958
2.5811257 0.052774951 -0.22420371
2.5811319 0.045159236 -0.22420371
2.5837576 0.037733868 -0.22559845
2.5779493 0.029705122 -0.22250283
2.5695705 0.021539107 -0.21803868
2.5694113 0.01394704 -0.21795094
2.5817435 0.0071161389 -0.22451329
2.5919731 9.0688467e-05 -0.22995603
2.5887575 -0.0077339411 -0.22824097
2.5873015 -0.015448019 -0.22746265
2.5826414 -0.023310691 -0.22497833
2.578578 -0.031118311 -0.22281182
2.5682745 -0.039171182 -0.21732306
2.5781546 -0.046351776 -0.22257996
2.5793216 -0.053915232 -0.22319806
2.5822349 -0.061425634 -0.22474587
2.5832601 -0.069012403 -0.22528827
2.5771639 -0.076807417 -0.22203958
2.5780401 -0.084388979 -0.22250283
2.5824049 -0.091897182 -0.22482336
2.5812471 -0.099539071 -0.22420371
2.5862064 -0.10707255 -0.22684085
2.5873806 -0.11468692 -0.22746265
2.5894339 -0.12229878 -0.22855246
2.5935435 -0.12990679 -0.23073709
2.5935495 -0.1375587 -0.23073709
2.5915022 -0.14521439 -0.22964394
2.5935616 -0.15286252 -0.23073709
2.5935678 -0.16051441 -0.23073709
2.5966601 -0.16818795 -0.23238027
2.6028612 -0.17591064 -0.2356782
2.6021285 -0.18358038 -0.23528469
2.5994775 -0.19121537 -0.23387027
2.5938919 -0.19877948 -0.23089337
2.5936043 -0.20642588 -0.23073709
2.5997908 -0.21423046 -0.23402727
2.6033418 -0.22199865 -0.23591447
2.6018696 -0.229634 -0.23512745
2.5977459 -0.23717165 -0.23292887
2.5874839 -0.24446085 -0.22746265
2.5857377 -0.25202549 -0.22652996
2.5928648 -0.25995606 -0.23032057
2.5951223 -0.26770777 -0.23151922
2.5977764 -0.27549192 -0.23292887
2.5957222 -0.28305036 -0.23183215
2.5895677 -0.2903744 -0.22855246
2.5854828 -0.29778033 -0.22637475
2.5793765 -0.30504072 -0.22312081
2.5753238 -0.31239444 -0.22096014
2.5689774 -0.31957287 -0.21757853
2.5614209 -0.32663035 -0.21355259
2.5672624 -0.33460665 -0.21665907
2.5799465 -0.34312958 -0.2234081
2.5872772 -0.35131079 -0.2273072
2.5834908 -0.35863742 -0.22528827
2.5814593 -0.36608857 -0.22420371
2.5774002 -0.37335196 -0.22203958
2.569314 -0.38023055 -0.21773183
2.5652926 -0.38743764 -0.21558797
2.5675981 -0.39522523 -0.21681213
2.5745282 -0.40348166 -0.22049797
2.5754023 -0.41116485 -0.22096014
2.5835392 -0.41961107 -0.22528827
2.5926073 -0.42820522 -0.2301122
2.6017392 -0.43685988 -0.23497021
2.6113818 -0.44562614 -0.24010003
2.6134729 -0.45357212 -0.24120986
2.6100557 -0.46087432 -0.23938739
2.5979288 -0.46709326 -0.23292887
2.5948458 -0.47437117 -0.23128438
2.5907447 -0.48150057 -0.22909796
2.5781677 -0.4874962 -0.22239983
2.5809808 -0.49547765 -0.22389412
2.58215 -0.50325072 -0.22451329
2.5795403 -0.51050258 -0.22312081
2.5815806 -0.51840258 -0.22420371
2.5836244 -0.52631503 -0.22528827
2.5856712 -0.53424001 -0.22637475
2.5877211 -0.54217756 -0.22746265
2.5856833 -0.54949552 -0.22637475
2.5853975 -0.55707729 -0.22621942
2.5672517 -0.56179255 -0.21655703
2.5592771 -0.56806219 -0.21230888
2.5654433 -0.57663643 -0.21558797
2.573581 -0.58558071 -0.21991646
2.5810597 -0.59445941 -0.22389412
2.5789354 -0.60170031 -0.2227602
2.5725718 -0.60817355 -0.21936965
2.5715604 -0.61557829 -0.21882808
2.5695071 -0.62278521 -0.21773183
2.5654855 -0.62961209 -0.21558797
2.5637693 -0.63685298 -0.21467125
2.5614827 -0.64397383 -0.21345103
2.5626345 -0.65175414 -0.2140609
2.5718443 -0.66114295 -0.21895993
2.5827203 -0.67092192 -0.22474587
2.5857866 -0.67916691 -0.22637475
2.5857925 -0.68679464 -0.22637475
2.5857987 -0.69442236 -0.22637475
2.5790141 -0.70060039 -0.2227602
2.5763142 -0.70762241 -0.22131979
2.5827363 -0.71662962 -0.2247349
2.5807474 -0.72380483 -0.22367299
2.5693445 -0.72884727 -0.21760035
2.5602195 -0.73434222 -0.21274018
2.5568926 -0.74112391 -0.21096611
2.5659649 -0.75078905 -0.21579182
2.5801275 -0.76171446 -0.22332704
2.5726163 -0.7675209 -0.21932578
2.5425742 -0.76780832 -0.20333219
2.5450366 -0.7759124 -0.20463955
2.5544586 -0.78576326 -0.20965135
2.5707989 -0.7974118 -0.21834552
2.5716128 -0.80520082 -0.21877551
2.5665882 -0.81148994 -0.21609795
2.5776606 -0.82194543 -0.22198808
2.5670795 -0.82675779 -0.21635294
2.5673728 -0.83440661 -0.216506
2.5656543 -0.84151483 -0.21558797
2.56796 -0.84970939 -0.21681213
2.5755856 -0.85938275 -0.22086775
2.5652893 -0.86411202 -0.21538413
2.5662527 -0.87194824 -0.21589375
2.5523493 -0.87556374 -0.20849049
2.5636814 -0.88634551 -0.21451867
2.5665586 -0.89474058 -0.21604681
2.5657024 -0.90205848 -0.21558797
2.5636995 -0.90903151 -0.21451867
2.5697424 -0.91839874 -0.21773183
2.5755246 -0.92772269 -0.22080612
2.5857987 -0.93845046 -0.22627115
2.590091 -0.94739723 -0.22855246
2.5921476 -0.95567441 -0.22964394
2.5880554 -0.96203446 -0.22746265
2.5901091 -0.97031665 -0.22855246
2.5880675 -0.97730196 -0.22746265
2.5880737 -0.98493576 -0.22746265
2.5880797 -0.99256945 -0.22746265
2.5840006 -0.99886107 -0.22528827
2.5799341 -1.005133 -0.22312081
2.5718336 -1.0100318 -0.21880627
2.5597746 -1.0135474 -0.21238494
2.5472622 -1.0168376 -0.20572221
2.5347309 -1.0200475 -0.19904959
2.5113132 -1.0194145 -0.18658292
2.490036 -1.0193908 -0.17525566
2.4789541 -1.0228312 -0.16935444
2.4699652 -1.0269495 -0.16456735
2.4451995 -1.0253665 -0.15138328
2.4310014 -1.027452 -0.14382398
2.4071999 -1.0259589 -0.13115323
2.3917973 -1.0274066 -0.12295258
2.3811173 -1.0305098 -0.1172657
2.3742161 -1.0349585 -0.11358988
2.3716421 -1.040992 -0.11221683
2.3643076 -1.045208 -0.10831058
2.3399322 -1.0428782 -0.095334888
2.3138883 -1.0397627 -0.081470966
2.2852306 -1.0354811 -0.06621623
2.2631211 -1.033587 -0.054446697
2.252672 -1.0361493 -0.048882604
2.241003 -1.0381665 -0.042669654
2.2294545 -1.0401632 -0.0365206
2.2147377 -1.0408171 -0.028685689
2.2048004 -1.0433209 -0.023394227
2.1927817 -1.0449165 -0.016995072
2.1587763 -1.0374032 0.0011051893
2.1451762 -1.0381376 0.0083458424
2.1357856 -1.0405469 0.013346195
2.1316192 -1.0450944 0.01556623
2.1267779 -1.049332 0.018145323
2.1185262 -1.0520889 0.022539377
2.1061687 -1.0530367 0.029118538
2.0904219 -1.0524483 0.037501574
2.0623989 -1.0464312 0.052417755
2.0528595 -1.0483373 0.057496905
2.0438335 -1.0504133 0.062303185
2.0411079 -1.0552303 0.063756108
2.0306597 -1.0565835 0.069318891
2.0188239 -1.0572513 0.075620294
2.0078633 -1.0582453 0.081455827
1.9975146 -1.0594532 0.086965799
1.9861697 -1.0601437 0.093005657
1.8886592 -1.0433007 0.14491045
1.8912089 -1.0500822 0.14355588
1.884811 -1.0525939 0.146963
1.8855132 -1.0584888 0.14659166
1.8801814 -1.0614629 0.14943135
1.8740367 -1.0640087 0.15270376
1.8627455 -1.0639932 0.15871489
1.8530612 -1.0647043 0.16387081
1.8459022 -1.0666124 0.16768289
1.8405703 -1.0693907 0.17052257
1.8321884 -1.070605 0.17498541
1.8239549 -1.0718451 0.17936915
1.8135684 -1.071942 0.18489873
1.800042 -1.0703722 0.19209909
1.7889897 -1.0699948 0.19798291
1.7137704 -1.0515212 0.2380197
1.7073067 -1.0531539 0.24146152
1.7012701 -1.0549757 0.24467587
1.6973689 -1.057904 0.24675411
1.690446 -1.0591843 0.25044012
1.6827886 -1.0600264 0.25451708
1.6809497 -1.063987 0.25549775
1.5278203 -1.0617888 0.33701849
1.5277053 -1.066223 0.33708173
1.5273525 -1.0705135 0.33727133
1.5280689 -1.0754492 0.33689201
1.5273596 -1.0795215 0.33727133
1.5231009 -1.0814191 0.33953941
1.5156522 -1.0813314 0.34350485
1.4954838 -1.0733461 0.35423851
1.4883987 -1.0733587 0.35801041
1.4844505 -1.0752846 0.36011314
1.4851271 -1.0800836 0.35975492
1.4864789 -1.0853115 0.35903752
1.4881711 -1.0907625 0.35813892
1.4880621 -1.0950794 0.35819882
2.0912471 1.2805995 0.029431224
2.0948248 1.2768568 0.027516842
2.100405 1.2744508 0.024529576
2.117064 1.2794927 0.015605569
2.1297975 1.2817972 0.008785367
2.1501708 1.2891399 -0.0021287203
2.1514292 1.2836246 -0.0028002262
2.1560955 1.2803631 -0.00529778
2.1596606 1.2763466 -0.0072054863
2.1635449 1.2725188 -0.0092839003
2.171349 1.2712339 -0.01346302
2.1851747 1.2738264 -0.020868301
2.197207 1.2751738 -0.027312636
2.1988096 1.2697163 -0.028168797
2.2010412 1.2646533 -0.029361606
2.2312429 1.2774717 -0.045541525
2.2451828 1.2797558 -0.05300796
2.2604878 1.2828228 -0.061205745
2.2670982 1.2803142 -0.06474483
2.2738602 1.2778616 -0.068365216
2.2786193 1.2741172 -0.070912242
2.281805 1.269366 -0.072616339
2.2849991 1.2646015 -0.074324965
2.2882028 1.2598238 -0.076038599
2.291415 1.2550324 -0.077756882
2.3961132 1.2767522 -0.13383675
2.406405 1.2757705 -0.13934815
2.4187009 1.2759094 -0.14593315
2.4338808 1.2776673 -0.15406334
2.4537156 1.2820523 -0.16468775
2.470005 1.2842617 -0.17341244
2.4901195 1.2885844 -0.18418646
2.5035157 1.288927 -0.19136107
2.5163195 1.2888515 -0.19821787
2.526463 1.2871872 -0.20364952
2.5348623 1.2844759 -0.20814657
2.5437417 1.2819855 -0.21290088
2.5487046 1.2772491 -0.21555662
2.5546842 1.27305 -0.21875715
2.5606918 1.268831 -0.2219727
2.5667276 1.2645923 -0.22520339
2.5765569 1.2623974 -0.23046649
2.5873384 1.2606634 -0.23623979
2.5938928 1.2565737 -0.23974812
2.5935068 1.2487024 -0.23953807
2.58882 1.2385265 -0.23702371
2.5762002 1.2241468 -0.2302593
2.5754333 1.2161291 -0.22984505
2.5748603 1.2082181 -0.22953475
2.5725513 1.1994002 -0.22829449
2.5684009 1.1896353 -0.22606754
2.5705411 1.1831576 -0.227211
2.5705471 1.1755667 -0.227211
2.5728645 1.1691608 -0.22844934
2.5688286 1.1595025 -0.22628367
2.5676818 1.1513326 -0.22566617
2.5702829 1.1450577 -0.22705638
2.5682702 1.1364565 -0.22597492
2.5728948 1.1311722 -0.22844934
2.5729008 1.1235745 -0.22844934
2.5708845 1.1149815 -0.22736561
2.5729129 1.108379 -0.22844934
2.572341 1.1005002 -0.22813964
2.5822706 1.0976992 -0.23345637
2.5790186 1.0885092 -0.23171067
2.5790246 1.0808935 -0.23171067
2.5749693 1.0713513 -0.22953475
2.568907 1.0608873 -0.22628367
2.5668967 1.0523571 -0.22520339
