# .PCD v0.7 - Point Cloud Data file format
VERSION 0.7
FIELDS x y z
SIZE 4 4 4
TYPE F F F
COUNT 1 1 1
WIDTH 1541
HEIGHT 1
VIEWPOINT 0 0 0 1 0 0 0
POINTS 1541
DATA ascii
3.8555701 -0.10263782 1.7106992
3.8463213 -0.11289513 1.709353
3.8371162 -0.12310331 1.7080133
3.8423011 -0.13319997 1.7087662
3.8533943 -0.14331371 1.7103782
3.8695805 -0.15349048 1.7127308
3.9667339 -0.16403916 1.7268581
4.01507 -0.1747987 1.733886
4.0269737 -0.18549204 1.735616
4.0191159 -0.19602183 1.734472
4.0161743 -0.20657937 1.7340429
4.0151038 -0.21715268 1.733886
4.0065055 -0.22757453 1.7326344
3.9859831 -0.23768866 1.7296488
3.990128 -0.24830224 1.7302504
4.0163956 -0.25954098 1.7340691
4.0239706 -0.2703591 1.7351694
4.0462108 -0.28169447 1.7384024
4.075491 -0.29339477 1.7426591
4.0979996 -0.30499339 1.745931
4.1274924 -0.31699318 1.7502186
4.0983229 -0.3266204 1.7459755
4.0714254 -0.33619761 1.7420628
4.0491381 -0.34585595 1.7388206
4.0275788 -0.35543382 1.7356843
4.0355768 -0.36648351 1.7368461
4.2090864 -0.40908879 1.7620738
4.2090955 -0.42018846 1.7620738
4.2091041 -0.43128812 1.7620738
4.2091131 -0.44238779 1.7620738
4.2334518 -0.45524177 1.7656116
4.2378707 -0.46673515 1.7662529
4.2342858 -0.47763255 1.7657304
4.2500238 -0.49005702 1.7680175
4.256216 -0.5017755 1.7689166
4.2709479 -0.51425493 1.7710576
4.2507215 -0.52373838 1.7681153
4.2475915 -0.53466332 1.7676587
4.251545 -0.54623193 1.7682322
4.271729 -0.55937672 1.7711661
4.283772 -0.57182622 1.7729161
4.2723575 -0.58196753 1.7712548
4.2573647 -0.59167737 1.7690732
4.2567673 -0.60283941 1.7689853
4.2691317 -0.6154114 1.7707818
4.3956342 -0.64079261 1.7891754
4.4421926 -0.65770388 1.7959443
4.4669724 -0.67231417 1.799546
4.470098 -0.68446589 1.7999992
4.4299378 -0.69134462 1.7941583
4.4241219 -0.70229888 1.7933111
4.4192648 -0.71334469 1.7926035
4.4186392 -0.72491539 1.7925112
4.4095278 -0.73535633 1.7911849
4.3596673 -0.74023223 1.7839335
4.3150582 -0.74557006 1.7774456
4.8699946 -1.0019225 1.8581171
4.8187823 -1.0564858 1.8506634
4.8988442 -1.084462 1.862303
4.9199133 -1.101452 1.865365
4.91188 -1.1128479 1.8641956
4.8711443 -1.1177049 1.858271
4.7876348 -1.1137367 1.8461273
4.7661133 -1.1219697 1.8429965
4.763341 -1.133962 1.8425918
4.7709484 -1.1481112 1.8436966
4.7704515 -1.1605836 1.8436229
4.7347789 -1.1655091 1.8384345
4.691895 -1.1686805 1.8321979
4.6552691 -1.1730012 1.826871
4.6183786 -1.1770699 1.8215058
4.5919175 -1.1832906 1.817657
4.5552115 -1.1870396 1.8123186
4.5214787 -1.1912796 1.8074125
4.5089626 -1.200284 1.8055913
4.4868765 -1.2069677 1.8023787
4.4681182 -1.2143277 1.7996498
4.4358506 -1.2183352 1.7949569
4.3936677 -1.2197585 1.7888224
4.361783 -1.2234936 1.7841852
4.3325529 -1.227721 1.7799339
4.2862034 -1.2274905 1.7731936
4.0731049 -1.2276067 1.7422038
3.9557586 -1.2069885 1.7251412
3.9181235 -1.2072607 1.7196681
3.8745117 -1.2057061 1.7133262
3.8293164 -1.2034857 1.7067538
3.8073354 -1.2074748 1.7035568
3.8142667 -1.2194544 1.7045634
3.8446217 -1.2380999 1.7089757
3.8516762 -1.2502497 1.7100003
3.8031003 -1.2463987 1.7029364
3.6837647 -1.2217056 1.685585
3.6072702 -1.2089601 1.6744623
3.5583801 -1.2039874 1.6673532
3.5370328 -1.2069879 1.6642483
3.5217357 -1.2116996 1.6620232
3.5032165 -1.2153509 1.6593297
3.4865496 -1.2194728 1.6569054
3.4766285 -1.2255934 1.6554619
3.4684052 -1.2321918 1.6542654
3.4684126 -1.2413363 1.6542654
3.2926435 -1.2207464 1.6287065
3.2687695 -1.2215985 1.6252346
3.2392707 -1.2204661 1.6209449
3.2249153 -1.2242224 1.6188569
3.2176032 -1.2302678 1.6177928
2.8932171 -1.228119 1.5706193
2.8759582 -1.2292677 1.5681094
2.8490772 -1.2266891 1.5642005
2.8340724 -1.228488 1.5620182
2.8157153 -1.2289237 1.5593486
2.7946475 -1.2282164 1.5562849
2.7834785 -1.2312433 1.5546603
2.7754996 -1.2354589 1.5534995
2.7677162 -1.2397095 1.5523671
2.7392371 -1.235716 1.5482261
2.7184296 -1.2346332 1.5452002
2.7102461 -1.2385108 1.5440097
2.7082477 -1.2448461 1.5437183
2.7132688 -1.2540267 1.5444474
2.7193172 -1.2636546 1.545326
2.7152913 -1.2691619 1.5447398
2.7082705 -1.2734057 1.5437183
2.6963146 -1.2755524 1.5419794
2.6867614 -1.278645 1.5405898
2.6657243 -1.2768332 1.5375307
2.6477451 -1.2762113 1.5349163
2.4873543 -1.27354 1.5115917
2.4828634 -1.2780548 1.5109382
2.4755416 -1.2812519 1.509873
2.467186 -1.2839353 1.5086576
2.4605031 -1.2873479 1.5076854
2.445179 -1.2867081 1.5054569
2.4353912 -1.2885759 1.5040333
2.4245732 -1.2899077 1.50246
2.4151206 -1.2918278 1.5010852
2.3952348 -1.2887381 1.4981936
2.3898823 -1.2924912 1.4974148
2.3827806 -1.2953753 1.4963816
2.2933059 -1.2886252 1.4833707
2.2795157 -1.2877852 1.4813653
2.2701697 -1.2891023 1.4800061
2.2609336 -1.2904257 1.4786627
2.2528934 -1.2923067 1.4774933
2.2450085 -1.2942245 1.4763464
2.2430494 -1.2991368 1.4760609
2.2377038 -1.3022946 1.4752833
2.2157307 -1.296818 1.4720883
2.2052548 -1.2972069 1.4705648
2.1955357 -1.2979358 1.4691514
2.1955402 -1.3037235 1.4691514
2.1827433 -1.3027503 1.4672905
2.1443555 -1.2881275 1.4617097
2.1312311 -1.2867773 1.4598013
2.1199594 -1.2863511 1.4581621
2.1150677 -1.2893022 1.4574504
2.1053476 -1.2896138 1.4560368
2.0895689 -1.2865788 1.4537425
2.0824461 -1.2881914 1.4527066
2.0790737 -1.2918264 1.4522157
2.0777307 -1.2965634 1.4520198
2.0793521 -1.302937 1.4522549
2.0844951 -1.3112808 1.4530019
2.083822 -1.3163966 1.4529033
2.0802763 -1.3198931 1.4523873
2.0723791 -1.3209124 1.4512388
2.0673711 -1.32353 1.4505103
2.0675423 -1.3290746 1.4505345
2.0722916 -1.3372433 1.4512242
2.0698874 -1.3413194 1.4508741
2.0698917 -1.3467757 1.4508741
2.065062 -1.3494242 1.4501715
2.0673974 -1.3562276 1.4505103
2.0674016 -1.3616773 1.4505103
2.0674059 -1.3671268 1.4505103
2.0650795 -1.3711981 1.4501715
2.0569673 -1.3718204 1.4489917
2.0485914 -1.3722427 1.4477735
2.0351558 -1.3695887 1.44582
2.0281317 -1.3707229 1.4447984
2.0232821 -1.3731346 1.4440929
2.0213017 -1.3772629 1.4438044
1.9275166 -1.3660239 1.4301671
1.9191542 -1.3658044 1.428951
1.9140304 -1.3676009 1.4282056
1.8625382 -1.3544719 1.4207189
1.8575057 -1.356111 1.419987
1.8512521 -1.3569276 1.4190774
1.8415518 -1.3554549 1.4176668
1.8373337 -1.3575342 1.4170532
1.832742 -1.3593447 1.4163853
1.82939 -1.3619523 1.4158975
1.825444 -1.3641471 1.4153235
1.8165263 -1.3630011 1.4140266
1.8013045 -1.357582 1.4118137
1.7934144 -1.357017 1.4106663
1.7889147 -1.3587012 1.4100118
1.7843133 -1.3602928 1.4093425
1.7776589 -1.3604622 1.4083748
1.7680014 -1.3585436 1.4069705
1.7639518 -1.3604223 1.4063814
1.7592968 -1.3618625 1.4057043
1.7567698 -1.3647497 1.4053364
1.7518731 -1.3659788 1.4046242
3.6415563 0.2694934 1.6703833
3.6415639 0.25988474 1.6703833
3.6472747 0.25090295 1.6711984
3.6481133 0.24136835 1.671317
3.6464593 0.23156857 1.6710796
3.6410768 0.22139728 1.6703094
3.6282961 0.21051925 1.6684819
3.6409886 0.20217267 1.6702946
3.6926489 0.19742543 1.6776757
3.7104161 0.18930614 1.6802137
3.7205853 0.1804184 1.6816655
3.7128899 0.16993761 1.6805649
3.7055328 0.15952575 1.6795123
3.6910801 0.14857876 1.677446
3.6972973 0.13932565 1.6783334
3.7157931 0.13096812 1.6809752
3.7610164 0.12446356 1.6874363
3.7716062 0.11528429 1.6889484
3.7730954 0.10543311 1.6891601
3.7550375 0.094302401 1.6865786
3.7382429 0.083345845 1.6841776
3.7477293 0.074049145 1.6855321
3.7620459 0.064978421 1.6875768
3.7659245 0.055263266 1.6881298
3.7698114 0.045528099 1.6886841
3.7692647 0.035554215 1.6886048
3.7809544 0.026153371 1.690274
3.8109584 0.017495781 1.6945603
3.8406737 0.0086679906 1.6988053
3.8700769 -0.00032864511 1.7030056
3.8624172 -0.010816008 1.70191
3.865422 -0.020906702 1.7023382
3.8616016 -0.031223163 1.701791
3.8526502 -0.041663684 1.7005107
3.830277 -0.05239895 1.6973127
3.8265803 -0.062589474 1.6967834
3.8909009 -0.071386211 1.705973
3.8973918 -0.081538156 1.7068994
3.9174914 -0.091521144 1.7097702
3.9123719 -0.10192008 1.7090375
3.8960614 -0.11239998 1.7067058
3.862395 -0.12291545 1.701894
3.8608513 -0.13311274 1.7016723
3.9341753 -0.14317189 1.7121484
4.0539112 -0.15365982 1.7292559
4.1182823 -0.16458346 1.7384526
4.1298537 -0.17552043 1.7401047
4.1125002 -0.18626338 1.7376239
4.1185913 -0.1971833 1.738493
4.0973911 -0.20775065 1.7354625
4.1112065 -0.21879201 1.7374353
4.1104617 -0.22962415 1.7373278
4.0864935 -0.23994121 1.7339017
4.0365419 -0.2494913 1.7267632
4.0498948 -0.26050511 1.7286699
4.0524654 -0.2712667 1.7290361
4.0880804 -0.28311777 1.7341237
4.1056671 -0.29452217 1.7366352
4.1397285 -0.30664265 1.7415009
4.163394 -0.31852201 1.7448809
4.1433387 -0.32864118 1.7420142
4.1201167 -0.33850956 1.7386949
4.0970349 -0.34826222 1.7353957
4.0814548 -0.35827583 1.7331684
4.1002746 -0.37005335 1.7358561
4.243433 -0.38893113 1.7563095
4.2760186 -0.40204656 1.7609642
4.2467322 -0.41152376 1.7567785
4.2317781 -0.42176673 1.7546406
4.2317872 -0.43293118 1.7546406
4.2299333 -0.44396612 1.7543745
4.2462993 -0.45630559 1.7567115
4.2685919 -0.46917447 1.7598953
4.2929173 -0.48231831 1.7633698
4.3363008 -0.49711594 1.769567
4.3396945 -0.50883591 1.7700506
4.3505111 -0.52120697 1.7715948
4.315731 -0.52962434 1.7666241
4.3027668 -0.53983462 1.7647705
4.3239684 -0.5531621 1.7677984
4.3418412 -0.56628227 1.7703508
4.3854475 -0.58203173 1.7765799
4.4065747 -0.5957374 1.779597
4.4169655 -0.60844016 1.7810802
4.4270225 -0.62116218 1.782516
4.4205399 -0.63213325 1.7815886
4.4397717 -0.64594257 1.7843348
4.4840302 -0.66271484 1.7906569
4.5165586 -0.67834842 1.7953032
4.5275135 -0.69157279 1.7968669
4.5111256 -0.70151234 1.7945242
4.4748945 -0.70888698 1.7893463
4.4459162 -0.71699548 1.7852049
4.4350238 -0.72730517 1.7836473
4.4208779 -0.73712528 1.7816248
4.8677812 -0.93771732 1.8454592
4.8851142 -0.95340765 1.847934
4.8807821 -0.96556926 1.8473138
4.8938432 -0.98065996 1.8491783
4.8882513 -0.99260437 1.8483779
4.8678322 -1.0019243 1.8454592
4.8771076 -1.0164115 1.8467829
4.8549404 -1.0252792 1.8436146
4.8549509 -1.0380864 1.8436146
4.8166327 -1.0437814 1.8381386
4.8293514 -1.0588794 1.8399543
4.8959823 -1.0843328 1.8494722
4.9117584 -1.1002985 1.8517246
4.897687 -1.1104939 1.8497128
4.8976979 -1.1234139 1.8497128
4.8262186 -1.1219369 1.8394995
4.8144403 -1.1322631 1.8378154
4.8421984 -1.1506977 1.8417796
4.8235235 -1.1595603 1.8391101
4.8104038 -1.1695018 1.8372343
4.7521315 -1.1696854 1.828908
4.6966877 -1.1701759 1.8209856
4.6591239 -1.174305 1.8156178
4.6280007 -1.1796683 1.8111699
4.6072083 -1.1871936 1.808198
4.5816817 -1.1935307 1.8045497
4.5517826 -1.1987258 1.800277
4.5334721 -1.2064637 1.7976599
4.5111356 -1.2131562 1.7944674
4.492166 -1.220533 1.7917559
4.4585671 -1.2242849 1.7869546
4.4058113 -1.2231933 1.7794168
4.3786192 -1.2281175 1.7755306
4.0232358 -1.2148871 1.7247519
3.9045215 -1.1937625 1.7077916
3.8969293 -1.2020102 1.7067058
3.8524144 -1.2001528 1.7003453
3.8332143 -1.2050279 1.6976013
3.8075929 -1.2080175 1.69394
3.8014815 -1.2163446 1.6930659
3.797734 -1.2253087 1.6925294
3.8294277 -1.2443814 1.6970558
3.8034534 -1.2469888 1.6933441
3.6800141 -1.2210914 1.675709
3.5905137 -1.2045102 1.6629224
3.5376511 -1.1983142 1.6553695
3.5167832 -1.2014046 1.6523874
3.5050061 -1.2071267 1.6507041
3.491642 -1.212304 1.6487937
3.4800324 -1.217949 1.6471343
3.4717896 -1.2245747 1.6459558
3.4668653 -1.232193 1.6452513
3.2313006 -1.2183077 1.6115934
3.222774 -1.2239871 1.6103743
3.2190025 -1.2312186 1.6098347
2.8828242 -1.2247244 1.5617994
2.8686752 -1.2270137 1.5597775
2.8507688 -1.227808 1.5572188
2.8359487 -1.2296826 1.5551009
2.820971 -1.2314186 1.5529606
2.8068678 -1.2334132 1.5509453
2.7854178 -1.2324781 1.5478804
2.7742672 -1.2354598 1.5462867
2.7629082 -1.2383006 1.5446634
2.7346125 -1.2343653 1.5406207
2.7160709 -1.2341744 1.5379713
2.7110486 -1.2393179 1.5372531
2.7110543 -1.2464684 1.5372531
2.7181044 -1.2564864 1.5382594
2.7241774 -1.2661414 1.5391259
2.720135 -1.2716572 1.5385478
2.7140915 -1.2763213 1.5376837
2.7040749 -1.279294 1.5362521
2.6914911 -1.2811351 1.5344537
2.6692274 -1.2788162 1.5312728
2.6538775 -1.2793219 1.5290796
2.6467576 -1.2832706 1.5280617
2.5532682 -1.2768999 1.5147038
2.5497174 -1.282055 1.5141959
2.5461764 -1.287196 1.5136894
2.5338476 -1.28837 1.5119276
2.4990172 -1.2793105 1.5069518
2.4910479 -1.2822767 1.5058126
2.4848542 -1.2860126 1.5049273
2.4806507 -1.2906311 1.5043261
2.4755645 -1.294819 1.5035988
2.4522781 -1.2905154 1.500272
2.4384789 -1.2905266 1.4983003
2.4251022 -1.2906636 1.4963888
2.4153752 -1.2924563 1.4949988
2.2970817 -1.291007 1.4780961
2.2852077 -1.2911334 1.4763995
2.273629 -1.2913455 1.474745
2.2606277 -1.2907785 1.4728874
2.2512999 -1.2920065 1.4715544
2.2436192 -1.2940251 1.4704566
2.2420537 -1.2991375 1.4702325
2.2367105 -1.3022953 1.4694686
2.214747 -1.2968189 1.4663309
2.2027605 -1.2964188 1.4646182
2.1866975 -1.2938235 1.4623232
2.1833491 -1.2978277 1.4618444
2.1698611 -1.2964567 1.4599173
2.1398547 -1.2862438 1.4556309
2.1286929 -1.2859285 1.454036
2.1190181 -1.2863518 1.4526535
2.1141288 -1.2893029 1.4519546
2.104413 -1.2896146 1.4505663
2.0886414 -1.2865795 1.448313
2.0815217 -1.2881922 1.4472955
2.0781507 -1.2918271 1.4468135
2.0756309 -1.2959141 1.4464529
2.0760725 -1.3016304 1.4465153
2.0815392 -1.31015 1.4472955
2.0828969 -1.3163973 1.4474888
2.0793529 -1.3198938 1.4469819
2.071794 -1.3211024 1.4459018
2.0664535 -1.3235307 1.4451385
2.0664577 -1.3289803 1.4451385
2.0687971 -1.3357683 1.4454719
2.0688016 -1.3412241 1.4454719
2.0688059 -1.3466798 1.4454719
2.0641456 -1.349425 1.4448056
2.0664794 -1.3562284 1.4451385
2.066484 -1.361678 1.4451385
2.0664883 -1.3671275 1.4451385
2.0641627 -1.3711988 1.4448056
2.0560541 -1.3718212 1.443647
2.047682 -1.3722434 1.4424506
2.0304923 -1.3673351 1.4399951
2.0225394 -1.3678982 1.4388586
2.0186677 -1.3708878 1.438305
2.0143361 -1.3735775 1.4376857
2.0007143 -1.3705765 1.4357398
1.9865569 -1.3671757 1.4337171
1.9766548 -1.3663187 1.4323024
1.9645396 -1.3640418 1.4305716
1.9471335 -1.3584174 1.4280851
1.9431034 -1.3610379 1.4275088
1.9410477 -1.3648726 1.4272146
1.9357746 -1.3666745 1.426461
1.9235765 -1.3640778 1.4247184
1.9176996 -1.3654231 1.4238784
1.9105856 -1.3659501 1.4228618
1.8954262 -1.361298 1.4206963
1.8848379 -1.3594992 1.4191836
1.8769753 -1.3594007 1.4180601
1.8639224 -1.3559031 1.4161954
1.858042 -1.3569958 1.4153551
1.8501188 -1.3567251 1.414223
1.8402939 -1.355167 1.4128193
1.8359044 -1.3571314 1.4121917
1.8319285 -1.3593453 1.4116235
1.8297964 -1.3627604 1.4113184
1.8258034 -1.3649261 1.4107476
1.8146918 -1.3623148 1.4091601
1.8010108 -1.357922 1.4072058
1.7922422 -1.3567644 1.4059532
1.7872479 -1.3581121 1.4052392
1.7829009 -1.3598725 1.404618
1.77802 -1.3612463 1.4039204
1.7696567 -1.3602128 1.4027255
1.7657193 -1.3621737 1.4021627
1.7593607 -1.3624452 1.4012541
1.7545477 -1.3637525 1.4005662
1.7497942 -1.3650757 1.3998868
1.7422134 -1.364403 1.3988037
1.7389079 -1.3666817 1.398331
1.735615 -1.3689519 1.3978604
1.7339752 -1.3723699 1.3976256
1.7321042 -1.3756158 1.3973579
3.6876078 0.3139278 1.6676073
3.6777296 0.30297557 1.6662197
3.6802039 0.29356438 1.6665659
3.6913524 0.28516275 1.6681297
3.6660981 0.27250701 1.6645839
3.6698892 0.2632553 1.6651149
3.6683345 0.2533958 1.6648955
3.7277458 0.25008774 1.6732335
3.7324624 0.24074033 1.6738945
3.7247658 0.23010126 1.6728132
3.7104025 0.21884018 1.6707959
3.7255867 0.21051425 1.6729261
3.742312 0.20225319 1.6752727
3.7459698 0.19270837 1.6757848
3.7531149 0.18345413 1.6767867
3.7509239 0.17335731 1.6764779
3.7562134 0.16389731 1.6772194
3.731699 0.15199742 1.6737773
3.7378075 0.14262438 1.6746337
3.7560642 0.13413817 1.6771951
3.8069115 0.1279349 1.6843309
3.8276215 0.11934257 1.6872365
3.8292644 0.10934955 1.6874659
3.7934015 0.096906692 1.6824312
3.7658882 0.085174665 1.6785686
3.7699618 0.075477108 1.6791391
3.7965319 0.067044184 1.6828673
3.7997589 0.057198137 1.6833191
3.8091328 0.047654033 1.6846337
3.8062291 0.037455857 1.6842251
3.8175857 0.02793771 1.6858178
3.8303189 0.018420175 1.6876037
3.8610005 0.0095772594 1.6919091
3.9031436 0.0010158867 1.6978228
3.9186809 -0.0087271184 1.7000024
3.9397898 -0.018365964 1.7029639
3.9308133 -0.029041961 1.7017028
3.9229076 -0.039640397 1.7005922
3.9068422 -0.050405093 1.6983361
3.8763807 -0.061413899 1.6940597
3.9528043 -0.07010138 1.7047848
3.9939108 -0.079812922 1.7105529
4.0143709 -0.090049744 1.7134235
4.0135407 -0.1006563 1.7133057
3.9958744 -0.11142097 1.710825
4.2455788 -0.15383606 1.7458664
4.261539 -0.16509897 1.7481049
4.2075977 -0.1760139 1.7405331
4.1916022 -0.18697882 1.7382869
4.1791039 -0.1978993 1.7365316
4.1736641 -0.2088533 1.7357669
4.1682382 -0.21977878 1.7350042
4.1651483 -0.23072083 1.7345692
4.1497302 -0.24137506 1.7324041
4.145772 -0.25223047 1.7318474
4.1390805 -0.2629903 1.730907
4.141767 -0.27399552 1.7312829
4.1359782 -0.28473878 1.7304692
4.1520805 -0.29622236 1.7327279
4.1622114 -0.30756485 1.7341485
4.1829553 -0.31939054 1.7370585
4.1640563 -0.32961568 1.7344048
4.1901579 -0.34180093 1.7380672
4.2103739 -0.35383892 1.7409029
4.2143555 -0.3651548 1.7414606
4.226047 -0.37690562 1.7431
4.2693591 -0.39049929 1.7491775
4.3198738 -0.40474629 1.7562656
4.300374 -0.41494635 1.7535276
4.2762775 -0.42474803 1.7501445
4.2648921 -0.43527275 1.7485455
4.2572446 -0.44599718 1.7474709
4.284173 -0.45917645 1.7512488
4.3068762 -0.47218177 1.7544336
4.3485684 -0.48677745 1.7602837
4.3916779 -0.50170666 1.7663324
4.3903317 -0.51318586 1.7661421
4.3832026 -0.5241642 1.7651404
4.3460226 -0.53246033 1.7599213
4.3251872 -0.54204166 1.7569959
4.3536749 -0.55611384 1.7609925
4.4040933 -0.57244003 1.7680669
4.4433246 -0.58792967 1.7735715
4.4712601 -0.60248315 1.7774906
4.4914331 -0.61637795 1.7803202
4.5011401 -0.62926495 1.7816811
4.5018277 -0.64121884 1.7817763
4.518683 -0.65498316 1.7841406
4.5378537 -0.66910136 1.7868295
4.5604882 -0.68372595 1.7900045
4.5637484 -0.69615149 1.7904607
4.5545602 -0.70707154 1.7891699
4.5395012 -0.71720946 1.7870551
4.4849257 -0.72222614 1.7793951
4.4753814 -0.73281896 1.7780542
4.4744978 -0.74451196 1.7779289
4.8916383 -0.94193149 1.8364525
4.894556 -0.95532 1.8368607
4.8829546 -0.96629655 1.8352311
4.8742914 -0.97771084 1.8340141
4.8792543 -0.99142897 1.8347089
4.8960533 -1.0072458 1.837065
4.9125495 -1.0230973 1.8393784
4.8801112 -1.0302098 1.834825
4.8768182 -1.0424846 1.8343613
4.8570986 -1.0516927 1.8315928
4.863873 -1.0657848 1.8325419
4.902988 -1.0860872 1.8380294
4.9133449 -1.1010295 1.8394812
4.8743939 -1.1063526 1.8340141
4.8583784 -1.1160302 1.8317652
4.8496499 -1.1270913 1.8305387
4.8671694 -1.1434641 1.8329959
4.8820229 -1.1593779 1.8350787
4.8820329 -1.1722621 1.8350787
4.8529062 -1.1789684 1.8309901
4.7873082 -1.1776916 1.8217835
4.7432866 -1.1807572 1.8156047
4.6897001 -1.1814867 1.8080838
4.6740613 -1.19038 1.8058878
4.6553812 -1.1985059 1.8032653
4.6318197 -1.2054209 1.7999575
4.6084952 -1.2122658 1.7966833
4.5882797 -1.2197126 1.7938452
4.5597019 -1.2250811 1.7898335
4.5370965 -1.2317226 1.7866603
4.5083575 -1.2367662 1.7826262
4.3977218 -1.2217003 1.7671002
4.3765578 -1.2280904 1.7641292
3.9057407 -1.1842489 1.6980548
3.8917181 -1.1908036 1.696086
3.8946059 -1.2018516 1.69649
3.8599877 -1.2026861 1.6916313
3.8414714 -1.2077718 1.6890321
3.8043942 -1.2075998 1.6838282
3.7788651 -1.2104728 1.6802449
3.7478189 -1.2116485 1.6758876
3.7337325 -1.217509 1.6739098
3.7460074 -1.2309017 1.6756312
3.6814809 -1.2219957 1.6665759
3.5806687 -1.2020876 1.652429
3.5237567 -1.1946621 1.6444423
3.5006487 -1.1970474 1.6411989
3.4895291 -1.2029277 1.6396376
3.480685 -1.2094421 1.6383955
3.4718864 -1.2159237 1.6371598
3.4713447 -1.2249156 1.6370828
3.4697065 -1.2335624 1.636852
3.225121 -1.2167397 1.6025263
3.2213426 -1.2239883 1.6019951
3.2213495 -1.2324889 1.6019951
2.8792765 -1.2238798 1.5539863
2.8665028 -1.2266773 1.5521932
2.8539472 -1.2294902 1.5504307
2.8390875 -1.2313588 1.5483449
2.8281231 -1.234643 1.5468056
2.8150761 -1.2370653 1.5449742
2.800005 -1.2386316 1.5428588
2.7835813 -1.239589 1.5405537
2.763767 -1.2391235 1.5377728
2.733398 -1.2343663 1.533511
2.7160158 -1.2346351 1.5310714
2.7118523 -1.2401261 1.5304865
2.711858 -1.2472819 1.5304865
2.7189155 -1.2573094 1.5314758
2.7229674 -1.2661424 1.5320436
2.7209487 -1.2724921 1.5317595
2.7169142 -1.2779945 1.5311927
2.7088757 -1.2818027 1.530064
2.6969039 -1.2839146 1.5283836
2.6737349 -1.2812258 1.5251321
2.6563666 -1.2808844 1.5226945
2.6429741 -1.2821542 1.5208147
2.6283967 -1.2828429 1.5187687
2.5497632 -1.2758539 1.5077333
2.5450404 -1.2804816 1.5070698
2.5415108 -1.2856174 1.5065739
2.5309706 -1.2875836 1.5050944
2.5067062 -1.2832894 1.5016894
2.4987249 -1.2862717 1.5005689
2.491359 -1.2894936 1.4995347
2.4845989 -1.292955 1.4985856
2.4773962 -1.296176 1.4975743
2.4528904 -1.2913082 1.4941355
2.4386139 -1.2910974 1.4921317
2.4260335 -1.2916095 1.4903661
2.4202325 -1.2952633 1.4895514
2.2975025 -1.2917242 1.4723268
2.2940102 -1.296039 1.4718361
2.2828016 -1.2964603 1.470263
2.2568369 -1.2893726 1.4666196
2.247931 -1.290805 1.4653695
2.2398777 -1.2926254 1.4642389
2.2371442 -1.2971312 1.4638548
2.2262628 -1.2974231 1.4623276
2.2084203 -1.2940515 1.4598237
2.1948972 -1.2928348 1.4579259
2.1772747 -1.2894014 1.455453
2.1698112 -1.2912182 1.4544053
2.1564834 -1.2898954 1.4525348
2.1347458 -1.2840354 1.4494847
2.1261582 -1.2850808 1.4482793
2.118077 -1.2863525 1.447145
2.1131899 -1.2893037 1.4464588
2.1034784 -1.2896153 1.4450957
2.0890756 -1.2873214 1.4430745
2.0824578 -1.2892106 1.4421453
2.0784075 -1.2924763 1.4415767
2.0747092 -1.2959148 1.4410572
2.0727999 -1.3003268 1.4407887
2.079433 -1.3094918 1.4417186
2.0807881 -1.3157347 1.4419081
2.0784295 -1.3198946 1.4415767
2.071209 -1.3212925 1.4405631
2.0655358 -1.3235315 1.4397666
2.0643752 -1.3283161 1.4396032
2.0667107 -1.3350993 1.4399302
2.0667152 -1.3405521 1.4399302
2.0667195 -1.3460047 1.4399302
2.0643926 -1.3501022 1.4396032
2.0667281 -1.3569101 1.4399302
2.0667324 -1.3623629 1.4399302
2.0667369 -1.3678155 1.4399302
2.0632463 -1.3711995 1.43944
2.055141 -1.3718219 1.4383024
2.046936 -1.3723418 1.4371507
2.0262735 -1.3653462 1.4342515
2.016232 -1.3646404 1.4328423
2.0111194 -1.3668635 1.4321245
2.0089159 -1.3708279 1.4318147
2.0004504 -1.3709584 1.4306266
1.9834269 -1.3657986 1.4282379
1.9688942 -1.3620822 1.4261987
1.9568684 -1.359839 1.4245111
1.9437424 -1.3568496 1.4226693
1.9403774 -1.359877 1.4221966
1.9376426 -1.3632809 1.4218124
1.9327742 -1.3653291 1.4211289
1.9202006 -1.3624864 1.4193645
1.9135078 -1.3633058 1.4184251
1.9044378 -1.3625765 1.4171522
1.8945844 -1.3612987 1.4157695
1.884001 -1.3594999 1.4142842
1.8758212 -1.3591949 1.4131362
1.8642018 -1.3566202 1.4115057
1.8578976 -1.3574388 1.4106209
1.8491416 -1.3566241 1.409392
1.8403134 -1.355716 1.4081531
1.8354397 -1.3573626 1.4074688
1.8290237 -1.3579646 1.4065683
1.8260294 -1.3608021 1.4061477
1.8209074 -1.3622071 1.4054288
1.8107454 -1.3602165 1.4040027
1.8005064 -1.3581207 1.402566
1.7921983 -1.3572716 1.4014
1.7873266 -1.3587025 1.4007161
1.7812421 -1.3592844 1.3998621
1.7764913 -1.360743 1.3991951
1.7715818 -1.3620683 1.3985059
1.7670652 -1.3636373 1.3978719
1.7602708 -1.3636121 1.3969182
1.7541888 -1.364044 1.3960645
1.7483673 -1.3646249 1.3952475
1.7408874 -1.3640187 1.3941977
1.7375857 -1.3662974 1.3937341
1.7342963 -1.3685675 1.3932722
1.7321118 -1.3715993 1.3929653
1.7286875 -1.3737423 1.3924844
1.7152678 -1.3687646 1.3906015
1.712032 -1.3709794 1.3901471
3.6859531 0.33339566 1.6580119
3.6978896 0.32519397 1.6596559
3.7058926 0.3164342 1.6607578
3.6992354 0.30582574 1.6598392
3.7059083 0.29685983 1.6607578
3.7084219 0.28736812 1.661103
3.7233548 0.27929518 1.6631601
3.7349534 0.27076766 1.6647577
3.752667 0.26285172 1.6671977
3.7736993 0.2551986 1.6700954
3.7815654 0.24605551 1.6711783
3.7882898 0.2367543 1.6721042
3.7727904 0.22520745 1.6699669
3.7901649 0.21692502 1.6723604
3.7900236 0.20690143 1.6723398
3.7868268 0.19659901 1.6718981
3.7892108 0.18680954 1.6722255
3.7854829 0.17648038 1.6717108
3.7923708 0.16705847 1.6726589
3.786432 0.15656173 1.6718395
3.7909265 0.14691359 1.6724576
3.800221 0.13760498 1.6737375
3.847739 0.1310392 1.6802852
3.8744411 0.12275708 1.6839641
3.8800287 0.11290321 1.6847332
3.8471854 0.10051739 1.6802056
3.8122034 0.088171497 1.6753833
3.8103309 0.07799153 1.6751242
3.8964024 0.07285136 1.686985
3.9174809 0.063711032 1.689889
3.9379804 0.054429352 1.6927128
3.9319396 0.043731794 1.6918793
3.9375932 0.033611462 1.6926572
3.9376016 0.023213014 1.6926572
3.9192612 0.012055874 1.6901287
3.965914 0.0035113692 1.6965568
3.9679427 -0.0068889856 1.6968353
3.9768894 -0.017068714 1.6980672
3.9744282 -0.027646877 1.6977267
3.974745 -0.038133793 1.6977693
3.9766936 -0.048580736 1.6980367
4.0028009 -0.05848559 1.7016335
4.0171876 -0.068765298 1.703615
4.0429378 -0.078921176 1.7071625
4.0682817 -0.089219078 1.7106538
4.0756931 -0.099871345 1.711674
4.0639925 -0.11074731 1.7100604
4.3508558 -0.15393446 1.7495883
4.3310103 -0.16535346 1.7468519
4.2472305 -0.17627212 1.7353052
4.219933 -0.1872468 1.7315421
4.2081485 -0.19825514 1.7299168
4.2081571 -0.20936757 1.7299168
4.2130141 -0.22056121 1.7305849
4.2047186 -0.23152544 1.7294406
4.1996031 -0.24251586 1.7287344
4.1843133 -0.25322822 1.7266262
4.2038245 -0.2648102 1.7293136
4.2233853 -0.27649671 1.7320082
4.2205691 -0.28755715 1.7316188
4.199254 -0.29795089 1.7286801
4.2158604 -0.30966824 1.7309673
4.2206359 -0.32099396 1.7316241
4.2045617 -0.33144504 1.7294078
4.2379551 -0.34407657 1.7340087
4.2836208 -0.3574788 1.7403002
4.3023481 -0.36974627 1.7428797
4.3091168 -0.38147017 1.7438111
4.3083658 -0.39280605 1.7437065
4.400291 -0.4096055 1.7563727
4.3774261 -0.419815 1.7532206
4.3830032 -0.43173188 1.7539878
4.354362 -0.44138831 1.7500398
4.3160486 -0.4502207 1.7447588
4.3625431 -0.46497375 1.7511646
4.3692536 -0.47699487 1.7520881
4.4076295 -0.49150479 1.757375
4.4656639 -0.50779235 1.7653707
4.4514437 -0.51840657 1.7634101
4.4523382 -0.53023636 1.7635322
4.4176631 -0.5389393 1.7587526
4.3969474 -0.54872489 1.7558966
4.4216056 -0.56263548 1.7592933
4.4671745 -0.57868284 1.7655712
4.4983206 -0.59354866 1.7698618
4.5373974 -0.60938185 1.7752453
4.5641026 -0.62413609 1.7789237
4.5714469 -0.63696897 1.7799346
4.5779963 -0.64975381 1.7808359
4.6077251 -0.66516459 1.7849309
4.5789518 -0.67403722 1.7809647
4.5953999 -0.68805254 1.7832301
4.6029639 -0.70109105 1.784271
4.6199036 -0.71531665 1.7866039
4.6091404 -0.72616863 1.7851193
4.5915656 -0.73609436 1.7826962
4.6067419 -0.75019419 1.7847862
4.6754413 -0.77148867 1.7942513
4.818531 -0.84139538 1.8139627
4.8037734 -0.8519603 1.8119277
4.9691629 -0.92860413 1.8347116
4.9691734 -0.94172466 1.8347116
4.909153 -0.94512224 1.8264399
4.9047742 -0.9573617 1.8258351
4.8829565 -0.96666157 1.8228275
4.8786244 -0.97881663 1.8222291
4.9217777 -0.99914134 1.8281739
4.9583282 -1.0185373 1.8332088
4.9785881 -1.0352293 1.8359988
4.9170828 -1.0372742 1.8275225
4.9129596 -1.0495001 1.8269531
4.8549399 -1.0516944 1.8189571
4.9023004 -1.0734321 1.8254814
4.9836707 -1.1019161 1.8366919
4.9947929 -1.1172265 1.838223
4.9247117 -1.1166561 1.8285651
4.8806596 -1.1208937 1.8224939
4.8863521 -1.1349254 1.8232768
4.8966427 -1.1499261 1.8246932
4.9126258 -1.1661586 1.8268942
4.9060464 -1.1777487 1.8259861
4.8701267 -1.1830806 1.8210356
4.8103547 -1.1830997 1.8127985
4.7837 -1.1900034 1.8091245
4.7765708 -1.2010626 1.8081406
4.7350607 -1.204428 1.8024198
4.7359462 -1.2171271 1.8025405
4.7176304 -1.2254535 1.8000154
4.7307158 -1.2409244 1.8018169
4.7133079 -1.2493519 1.7994173
4.6813078 -1.2542455 1.7950068
4.6449189 -1.2579235 1.7899916
4.5660667 -1.2511684 1.7791257
3.8789792 -1.1776204 1.6844468
3.8966191 -1.1925792 1.6868762
3.9023685 -1.2044182 1.6876671
3.8807874 -1.2088305 1.6846924
3.8363125 -1.2068222 1.6785636
3.7950003 -1.2054586 1.6728706
3.766351 -1.2074323 1.6689223
3.7331657 -1.2079691 1.6643491
3.7108192 -1.2114309 1.6612689
3.4670539 -1.2149147 1.6276755
3.4681573 -1.2244074 1.6278265
3.4665213 -1.2330501 1.6276002
3.2199111 -1.2239894 1.593616
3.219918 -1.2324899 1.593616
3.0482273 -1.2230407 1.5699564
3.0448506 -1.2298882 1.5694904
2.8985093 -1.2162354 1.5493246
2.8939295 -1.2221882 1.5486928
2.8779969 -1.2238808 1.546497
2.8674748 -1.2275224 1.5450466
2.856498 -1.2309362 1.5435334
2.8422358 -1.2330402 1.5415677
2.8312423 -1.2363231 1.5400524
2.8159914 -1.2379031 1.5379505
2.7987609 -1.2386326 1.5355759
2.7802298 -1.2387619 1.5330222
2.7586696 -1.237599 1.530051
2.7304354 -1.2336735 1.5261605
2.7148089 -1.2346361 1.524007
2.711652 -1.2405311 1.5235713
2.7116578 -1.2476895 1.5235713
2.719728 -1.2581336 1.5246823
2.7217574 -1.2661433 1.524961
2.7217631 -1.2733284 1.524961
2.7197452 -1.2796729 1.5246823
2.7116864 -1.2834816 1.5235713
2.6979778 -1.2848712 1.521682
2.6667945 -1.2787919 1.5173852
2.6535354 -1.2801821 1.5155579
2.6383214 -1.2806646 1.5134612
2.6249545 -1.2818631 1.511619
2.593354 -1.2750808 1.507265
2.5712252 -1.2722658 1.5042156
2.5537932 -1.2713964 1.5018135
2.5483346 -1.2757242 1.5010607
2.543025 -1.2800894 1.5003285
2.5403817 -1.2856183 1.4999636
2.5324728 -1.2887658 1.4988735
2.5208855 -1.2902075 1.4972764
2.5044541 -1.2893842 1.4950122
2.4953482 -1.2918262 1.4937569
2.4868712 -1.2945098 1.4925885
2.4762955 -1.2961769 1.4911308
2.4506276 -1.2907629 1.4875941
2.4391556 -1.2918593 1.4860132
2.4267941 -1.2924759 1.4843096
2.4224529 -1.2968242 1.4837106
2.2964818 -1.2917249 1.4663513
2.291213 -1.2951511 1.4656248
2.2837934 -1.2974689 1.4646022
2.2624109 -1.2926952 1.461656
2.2526639 -1.293716 1.4603127
2.2393396 -1.2928594 1.4584764
2.2314737 -1.2947332 1.4573922
2.2167339 -1.2930205 1.4553611
2.1998539 -1.2901211 1.4530354
2.1841915 -1.2877669 1.4508771
2.1666863 -1.2843652 1.4484651
2.1563828 -1.2846603 1.4470451
2.1439755 -1.2837887 1.4453354
2.1294506 -1.281726 1.4433339
2.1223953 -1.2835763 1.4423615
2.117136 -1.2863533 1.4416364
2.112251 -1.2893044 1.4409628
2.1025438 -1.2896161 1.4396251
2.0895104 -1.2880646 1.437829
2.083395 -1.2902309 1.4369862
2.0786645 -1.2931262 1.4363339
2.0761411 -1.2972163 1.4359857
2.0725498 -1.3006998 1.4354904
2.0778344 -1.309116 1.4362178
2.0798638 -1.3157356 1.4364967
2.0763268 -1.3192313 1.4360089
2.0702887 -1.3212932 1.4351765
2.0646181 -1.3235322 1.4343948
2.0622947 -1.3276526 1.4340742
2.0634623 -1.3337634 1.4342344
2.0634665 -1.3392099 1.4342344
2.0634708 -1.3446563 1.4342344
2.0634754 -1.3501029 1.4342344
2.066977 -1.3575928 1.4347162
2.0681498 -1.3637344 1.4348772
2.069324 -1.3698827 1.4350383
2.0646572 -1.3725787 1.4343948
2.0565374 -1.3731962 1.4332758
2.0464079 -1.3725703 1.43188
2.0220685 -1.3633639 1.4285266
2.0110633 -1.3620657 1.4270103
2.0058174 -1.3641957 1.4262871
2.0036247 -1.3681543 1.4259845
2.0011241 -1.3719131 1.4256395
1.9883159 -1.369338 1.4238746
1.9692298 -1.3628284 1.4212452
1.9539523 -1.3585738 1.4191402
1.9439769 -1.3575321 1.4177656
1.9385858 -1.3592976 1.4170225
1.935513 -1.3624868 1.4165987
1.9308474 -1.364658 1.4159555
1.9188442 -1.362169 1.4143016
1.9112589 -1.3624192 1.4132563
1.9007661 -1.3607773 1.4118104
1.8910859 -1.3595998 1.4104766
1.8809512 -1.3580794 1.40908
1.8729084 -1.3578544 1.4079717
1.8671774 -1.359084 1.4071817
1.8601294 -1.3594272 1.4062104
1.8495213 -1.3574089 1.4047488
1.8404212 -1.3563231 1.4034948
1.8346243 -1.3573632 1.4026959
1.8272979 -1.3573622 1.4016862
1.8233991 -1.3595959 1.4011487
1.8182893 -1.3610028 1.4004443
1.808152 -1.3590209 1.3990476
1.7995801 -1.3580364 1.3978664
1.7914021 -1.3572721 1.3967395
1.7865326 -1.3587031 1.3960682
1.7804507 -1.359285 1.3952301
1.7757021 -1.3607438 1.3945755
1.7707947 -1.3620689 1.3938991
1.7662802 -1.3636379 1.3932767
1.7603353 -1.3641965 1.3924574
1.7542502 -1.3646266 1.3916187
1.7481472 -1.3650124 1.3907777
1.7414945 -1.3649822 1.3898609
1.7373636 -1.366683 1.3892914
1.7332523 -1.3683757 1.3887246
1.7299778 -1.3706373 1.3882731
1.725785 -1.3722311 1.3876951
1.7139957 -1.3684028 1.3860708
1.7097076 -1.3698642 1.3854798
3.7203169 0.33811811 1.6532867
3.7324827 0.32985139 1.6549315
3.7294436 0.31960592 1.6545193
3.7205927 0.30866009 1.653321
3.7332687 0.30035791 1.6550347
3.7335489 0.29052618 1.6550715
3.7455819 0.28204873 1.6566982
3.7828941 0.27635682 1.6617446
3.7984674 0.26807508 1.6638503
3.8158085 0.25990102 1.6661952
3.8208504 0.25034663 1.6668761
3.8208585 0.24025151 1.6668761
3.8076172 0.22883812 1.6650836
3.8217306 0.22014418 1.6669919
3.8639691 0.21402532 1.6727047
3.8626812 0.20369768 1.6725293
3.8231823 0.18997899 1.6671851
3.8440888 0.18168098 1.670012
3.8545322 0.17239746 1.6714238
3.8544741 0.16220811 1.6714149
3.8644629 0.1528064 1.672765
3.837641 0.14056486 1.6691356
3.8769159 0.13329488 1.6744473
3.917788 0.12592992 1.6799752
3.9101121 0.11505809 1.6789356
3.8787036 0.1026808 1.6746857
3.849494 0.090606883 1.6707332
3.8891358 0.082808986 1.6760948
3.9272358 0.074713409 1.6812475
3.9480219 0.065471575 1.6840582
3.9732547 0.056350887 1.6874704
3.9778521 0.04607974 1.6880912
3.9902678 0.036149085 1.6897695
3.9874337 0.025481731 1.6893851
3.9721603 0.01431483 1.6873178
3.9833975 0.0042552948 1.6888367
3.986985 -0.0061396211 1.6893209
4.0019603 -0.016172603 1.6913455
3.9986334 -0.026848368 1.6908944
4.0188446 -0.036843739 1.6936271
4.0241656 -0.047325805 1.6943457
4.0395432 -0.057605915 1.6964247
4.0629039 -0.067805722 1.6995835
4.0964122 -0.077950463 1.7041149
4.1254826 -0.088338524 1.7080462
4.132154 -0.099155754 1.7089473
4.1303835 -0.11008977 1.7087069
4.375268 -0.15395986 1.7418265
4.3525023 -0.16543806 1.738746
4.2815723 -0.17649785 1.7291504
4.257359 -0.18759537 1.7258739
4.2453599 -0.198705 1.7242496
4.2552533 -0.21006019 1.7255867
4.2701755 -0.2215519 1.7276039
4.2988815 -0.23338978 1.7314856
4.3137999 -0.24507537 1.7335023
4.3274975 -0.25680965 1.7353538
4.3236074 -0.26813567 1.7348263
4.3009825 -0.2788797 1.7317648
4.2995043 -0.29019368 1.7315638
4.3360896 -0.30284148 1.7365112
4.3449349 -0.31463146 1.7377062
4.3751569 -0.32733452 1.7417929
4.3797588 -0.33909118 1.7424141
4.4354262 -0.35321164 1.7499427
4.4577589 -0.36601087 1.7529621
4.4759631 -0.37871706 1.7554231
4.4832921 -0.390935 1.7564132
4.4964328 -0.40351921 1.7581892
4.5004487 -0.41563424 1.7587314
4.4940448 -0.42712793 1.7578638
4.4877481 -0.43859461 1.7570109
4.4671636 -0.44907141 1.7542253
4.4782224 -0.46164152 1.7557199
4.4685197 -0.4727703 1.7544061
4.4362125 -0.48215532 1.750035
4.4672012 -0.49627599 1.7542253
4.5348744 -0.51350087 1.7633774
4.5939379 -0.53037035 1.7713649
4.6166024 -0.54444182 1.774429
4.6038761 -0.55551577 1.7727065
4.5624771 -0.56392115 1.7671056
4.5262589 -0.57259148 1.7622056
4.5220022 -0.58413893 1.7616286
4.5585322 -0.59968728 1.7665682
4.6013231 -0.61606276 1.7723546
4.6289191 -0.6310851 1.7760859
4.6289287 -0.64331317 1.7760859
4.6349273 -0.65619528 1.7768958
4.7322288 -0.67932177 1.790055
4.7416081 -0.69289553 1.7913222
4.7580767 -0.70734906 1.7935482
4.7569075 -0.71977699 1.7933888
4.7653828 -0.73337936 1.7945337
4.7752738 -0.74720347 1.7958702
4.7632341 -0.7582792 1.7942405
4.7563577 -0.76996434 1.7933089
4.762269 -0.78331363 1.7941072
4.8142538 -0.81565893 1.8011355
4.7848577 -0.82423258 1.7971582
4.8166904 -0.84144056 1.8014623
4.833806 -0.85666478 1.8037758
5.0215349 -0.93716204 1.8291607
5.0105333 -0.94867146 1.8276713
4.975666 -0.95625544 1.8229539
4.9468207 -0.96464694 1.8190513
4.9230394 -0.97373331 1.8158334
4.9074936 -0.98409379 1.8137295
4.9857254 -1.0105584 1.8243088
5.0603838 -1.0368102 1.8344048
5.0776072 -1.0532391 1.8367326
5.0618029 -1.0637966 1.834594
5.0259147 -1.0705919 1.8297386
5.081502 -1.1210362 1.8372521
5.0884418 -1.1358012 1.8381894
5.0153198 -1.134881 1.8282986
4.9222798 -1.1296103 1.8157139
4.9179697 -1.1417413 1.8151296
4.9208183 -1.1553116 1.8155134
4.9369664 -1.1716495 1.8176959
4.9236789 -1.1819031 1.8158976
4.8874855 -1.1872255 1.8110012
4.8336449 -1.1885653 1.8037181
4.8175793 -1.1978364 1.801544
4.8103452 -1.2089671 1.8005643
4.8013296 -1.2196625 1.7993437
4.8373842 -1.2404701 1.8042184
4.8300896 -1.2515819 1.8032306
4.8230777 -1.2627199 1.8022809
4.8073835 -1.2717952 1.800157
4.7366848 -1.2678068 1.7905942
4.6750841 -1.2656162 1.7822621
3.9015372 -1.1943606 1.6776347
3.9101691 -1.206997 1.6788011
3.8893785 -1.2116479 1.6759882
3.4655125 -1.2149159 1.6186531
3.4666154 -1.2244087 1.6188011
3.4649801 -1.2330513 1.6185789
3.4459367 -1.2361983 1.6160026
3.4405391 -1.2435819 1.6152718
3.2184865 -1.2324911 1.5852368
3.0401163 -1.2206626 1.5611105
3.0356355 -1.2270999 1.5605037
3.0067945 -1.2248056 1.5566027
2.9838982 -1.2244998 1.5535057
2.9517844 -1.2207295 1.5491621
2.9344182 -1.2221779 1.5468129
2.907974 -1.2201939 1.5432361
2.8987582 -1.2244558 1.5419891
2.8812516 -1.2255743 1.5396209
2.8707008 -1.2292154 1.5381933
2.8609731 -1.2331121 1.536877
2.8498294 -1.2364178 1.5353694
2.8390875 -1.2398187 1.5339159
2.8176317 -1.239022 1.5310138
2.8014975 -1.2401826 1.5288312
2.7826195 -1.2401834 1.5262777
2.7560577 -1.2370535 1.5226851
2.7295127 -1.2337902 1.5190948
2.7170591 -1.2360189 1.51741
2.7144711 -1.2421513 1.5170593
2.7144768 -1.2493203 1.5170593
2.7205417 -1.2589592 1.5178787
2.7205474 -1.2661443 1.5178787
2.7205532 -1.2733294 1.5178787
2.7205589 -1.2805144 1.5178787
2.7134984 -1.2847443 1.5169231
2.703758 -1.2878094 1.5156052
2.6799364 -1.2848601 1.5123833
2.6563013 -1.2818643 1.5091865
2.6389613 -1.2814428 1.5068412
2.6235933 -1.2817802 1.5047624
2.5962331 -1.2768317 1.5010619
2.572062 -1.2731313 1.4977928
2.553592 -1.2718076 1.4952946
2.5436578 -1.2741588 1.4939506
2.5360181 -1.2774779 1.4929168
2.5322185 -1.2824736 1.4924023
2.5278473 -1.2871921 1.4918106
2.5171628 -1.2890309 1.490365
2.49821 -1.2870497 1.4878016
2.4931054 -1.2913082 1.4871106
2.4840775 -1.2937331 1.4858892
2.4735203 -1.2954024 1.4844609
2.4498508 -1.2909094 1.4812598
2.4378781 -1.2917694 1.4796402
2.4249492 -1.2921159 1.4778913
2.4195242 -1.2959481 1.4771571
2.3026886 -1.2953206 1.4613532
2.2994757 -1.2997928 1.4609181
2.2927978 -1.3025062 1.4600146
2.2600076 -1.2919897 1.4555802
2.2494464 -1.292591 1.4541516
2.2333317 -1.290301 1.451972
2.2251496 -1.2919973 1.4508651
2.2092781 -1.2896835 1.4487185
2.1984041 -1.2898771 1.4472475
2.1837795 -1.2880589 1.4452696
2.1632853 -1.2830888 1.442498
2.1524789 -1.2831106 1.4410362
2.1340892 -1.2790631 1.438549
2.1250582 -1.2798945 1.4373274
2.1186426 -1.2820759 1.4364593
2.116195 -1.2863541 1.4361278
2.1113122 -1.2893052 1.435467
2.1028178 -1.2902722 1.4343179
2.0906286 -1.2891809 1.4326693
2.0836558 -1.2908813 1.4317259
2.0789218 -1.2937768 1.4310852
2.076565 -1.2979614 1.430766
2.0765693 -1.303445 1.430766
2.0780909 -1.3097754 1.430971
2.0801218 -1.3163995 1.4312451
2.0754039 -1.319232 1.4306066
2.0690336 -1.3211044 1.4297447
2.0637004 -1.3235329 1.429023
2.0602167 -1.3269899 1.4285514
2.0602212 -1.3324302 1.4285514
2.0602255 -1.3378707 1.4285514
2.0613911 -1.3439838 1.4287086
2.0637221 -1.350781 1.429023
2.0683954 -1.3589596 1.4296544
2.0707424 -1.3657968 1.4299711
2.0719199 -1.3719569 1.4301296
2.0652936 -1.3735 1.4292332
2.0560088 -1.3734262 1.4279773
2.044482 -1.3719635 1.4264182
2.0186901 -1.361876 1.4229306
2.0099592 -1.3619395 1.4217496
2.004926 -1.3641964 1.4210684
2.0038314 -1.3688225 1.4209199
2.0002346 -1.3719138 1.420433
1.9890537 -1.3703334 1.4189208
1.9797207 -1.3698324 1.4176584
1.9508582 -1.3571973 1.4137557
1.9438998 -1.3580221 1.4128144
1.9380174 -1.3594813 1.4120185
1.9349451 -1.3626709 1.4116026
1.9298438 -1.364567 1.4109123
1.9191418 -1.3628967 1.4094648
1.9121218 -1.3635066 1.4085153
1.9020387 -1.3621274 1.4071515
1.8879683 -1.3581436 1.4052486
1.8784595 -1.3570162 1.4039626
1.869683 -1.3563113 1.4027755
1.8658713 -1.3587762 1.4022596
1.8599106 -1.3598233 1.4014533
1.8494338 -1.3578894 1.4000363
1.8422506 -1.3580599 1.3990645
1.8356497 -1.3585758 1.3981717
1.8283119 -1.3585699 1.3971791
1.8225886 -1.3595966 1.3964049
1.8165784 -1.360402 1.3955917
1.8064556 -1.3584244 1.3942227
1.7965919 -1.3565676 1.3928887
1.7896045 -1.3565978 1.3919435
1.7857386 -1.3587037 1.3914204
1.7805258 -1.3598744 1.3907151
1.7762058 -1.3616264 1.3901305
1.7708648 -1.3626565 1.389408
1.7646433 -1.3630528 1.3885664
1.7581029 -1.3631966 1.3876817
1.7522104 -1.3637544 1.3868846
1.7463274 -1.3642879 1.3860887
1.7405134 -1.3648384 1.3853023
1.7363853 -1.3665391 1.3847437
1.7318666 -1.3679435 1.3841324
1.7283919 -1.370061 1.383662
1.7229283 -1.3707511 1.3829229
1.7124445 -1.367842 1.3815051
1.7081673 -1.3693078 1.3809264
1.7005463 -1.3683554 1.3798957
3.8054302 0.34950617 1.6551147
3.7677605 0.33460107 1.6501136
3.7976961 0.3284117 1.6540859
3.7745612 0.31551889 1.6510142
3.807729 0.3095434 1.6554155
3.7958677 0.29807729 1.6538401
3.8083122 0.28947878 1.6554909
3.832864 0.28217968 1.6587486
3.8469985 0.27360377 1.6606237
3.8557069 0.26436999 1.6617785
3.8536816 0.25396502 1.6615086
3.8496289 0.24336368 1.6609695
3.8435616 0.23258328 1.6601632
3.8464606 0.22270375 1.6605468
3.8747339 0.21520057 1.6642987
3.8851418 0.20591131 1.665679
3.8899062 0.19606504 1.6663101
3.904053 0.18700349 1.6681869
3.8919265 0.17566866 1.6665763
3.9086161 0.16673309 1.6687903
3.9209521 0.15736806 1.6704266
3.9467497 0.14895755 1.6738496
3.9768312 0.14072391 1.6778412
3.9758387 0.13014168 1.6777084
3.9506361 0.1179229 1.6743622
3.9360511 0.10652947 1.6724253
3.9186668 0.095038101 1.6701167
3.9424248 0.08610259 1.6732689
3.9792385 0.077788904 1.678154
4.0113463 0.069023669 1.6824145
4.0388675 0.05985041 1.6860662
4.0396047 0.049210921 1.6861629
4.0639148 0.039667711 1.6893883
4.0532956 0.028458178 1.6879777
4.0179191 0.016280279 1.6832812
4.0101151 0.0053576231 1.6822443
4.0444794 -0.036072709 1.6868008
4.07759 -0.045917846 1.6911943
4.090054 -0.056410417 1.6928474
4.1146736 -0.066722818 1.6961138
4.1369791 -0.077206023 1.6990732
4.1612206 -0.087778158 1.7022893
4.1734519 -0.098626226 1.7039115
4.1643996 -0.10974465 1.7027092
4.1544871 -0.12082122 1.7013922
4.1680374 -0.13174257 1.7031895
4.2788763 -0.14256647 1.7178991
4.3733215 -0.15396141 1.7304327
4.3737788 -0.16552198 1.7304922
4.3033967 -0.17664629 1.7211498
4.2972937 -0.18796642 1.7203386
4.2807598 -0.19913451 1.718143
4.2904639 -0.21058565 1.7194297
4.318728 -0.22239919 1.7231798
4.35043 -0.23442881 1.7273862
4.3828163 -0.24664104 1.7316831
4.3854027 -0.25828856 1.7320251
4.3839083 -0.26983815 1.7318257
4.3547001 -0.28054899 1.727948
4.3781233 -0.2928223 1.7310554
4.4203053 -0.30588087 1.7366524
4.4251213 -0.31774595 1.7372904
4.4586329 -0.33080003 1.7417367
4.4791675 -0.34347069 1.7444606
4.5350757 -0.35787123 1.7518795
4.5597258 -0.37105188 1.7551496
4.580266 -0.38415265 1.7578745
4.5868473 -0.39661145 1.7587465
4.5986385 -0.40939885 1.7603102
4.6060309 -0.42198879 1.7612898
4.5934663 -0.43338656 1.7596211
4.5840669 -0.44492143 1.7583724
4.5570073 -0.45522377 1.7547799
4.5400071 -0.46608338 1.7525225
4.5220366 -0.47678292 1.7501363
4.4777122 -0.48541337 1.7442526
4.5029478 -0.49920386 1.7476004
4.587492 -0.51788378 1.7588193
4.6532373 -0.53545332 1.7675433
4.6849051 -0.55045748 1.7717446
4.6888418 -0.5631851 1.7722659
4.6507416 -0.57211828 1.7672083
4.5885596 -0.57860041 1.7589545
4.6087275 -0.59266365 1.7616298
4.7673154 -0.62049425 1.7826748
4.7969294 -0.6360935 1.7866037
4.8162093 -0.6507746 1.789161
4.8162193 -0.66350317 1.789161
4.8253155 -0.67722452 1.7903668
4.8351774 -0.6910795 1.7916741
4.8207455 -0.70220375 1.7897575
4.8093605 -0.71360874 1.7882454
4.7944317 -0.72452879 1.7862628
4.7982101 -0.73766124 1.786763
4.8145638 -0.75238681 1.7889316
4.8228731 -0.76617122 1.7900333
4.8223643 -0.77884936 1.7899644
4.8163209 -0.79078853 1.789161
4.7889776 -0.7998054 1.785531
4.7938738 -0.81313765 1.7861795
4.7982812 -0.82642674 1.786763
4.8501091 -0.84654927 1.7936394
4.949842 -0.87395215 1.8068733
5.1449409 -0.95686758 1.8327584
5.0901637 -0.96172726 1.8254876
5.0361228 -0.96641672 1.8183148
4.9919052 -0.97243905 1.8124454
4.9705749 -0.98205876 1.8096135
5.0340624 -1.0059882 1.818037
5.0835886 -1.0278424 1.8246081
5.1169415 -1.0471225 1.8290327
5.105094 -1.0585346 1.8274589
5.0720367 -1.0660535 1.8230709
5.1466923 -1.1339329 1.8329719
5.1480837 -1.1478015 1.8331552
5.1037793 -1.1526998 1.8272746
4.9843249 -1.1424015 1.8114214
4.9533839 -1.1493289 1.8073142
4.9380941 -1.1592917 1.8052838
4.944787 -1.1737248 1.8061707
4.9248047 -1.1826003 1.8035176
4.8984089 -1.190008 1.8000135
4.8722939 -1.1973369 1.7965468
4.8593459 -1.2073929 1.7948272
4.8658271 -1.2216593 1.7956858
4.8630619 -1.2338992 1.7953176
4.8834972 -1.2513568 1.798028
4.8982029 -1.2676148 1.7999779
4.8658681 -1.2730931 1.7956858
4.8508062 -1.2824333 1.7936859
3.9228733 -1.2005405 1.6705381
3.921011 -1.2104008 1.6702899
3.460691 -1.2139087 1.6091952
3.4650736 -1.2244099 1.6097755
3.463439 -1.2330526 1.6095579
3.4498231 -1.2379084 1.6077504
3.4462156 -1.2458748 1.6072706
3.2208352 -1.2337644 1.5773591
3.0433431 -1.222277 1.5538032
3.0327666 -1.2265618 1.5523992
3.0054572 -1.2248067 1.5487747
2.9836535 -1.2248908 1.5458809
2.9557748 -1.2226551 1.542181
2.9378288 -1.2239027 1.5397991
2.916733 -1.2238961 1.5369992
2.9074576 -1.2281611 1.5357677
2.8959444 -1.2315414 1.5342393
2.8845222 -1.234895 1.5327231
2.8641827 -1.2348108 1.5300236
2.8530092 -1.2381151 1.5285404
2.8422384 -1.2415148 1.5271103
2.8207259 -1.2407039 1.5242553
2.8056257 -1.242276 1.522251
2.7856216 -1.2418462 1.5195961
2.7520657 -1.235963 1.5151432
2.7285898 -1.2339067 1.5120276
2.7170043 -1.2364811 1.5104897
2.7152796 -1.2429636 1.5102601
2.7152853 -1.2501379 1.5102601
2.7193317 -1.2589601 1.5107962
2.7193375 -1.2661452 1.5107962
2.7193432 -1.2733303 1.5107962
2.7193489 -1.2805153 1.5107962
2.7143056 -1.2855881 1.5101264
2.708564 -1.2903401 1.5093638
2.6877503 -1.2886763 1.5066015
2.6557631 -1.2821393 1.5023568
2.6375158 -1.2813271 1.4999352
2.6174185 -1.2796198 1.497268
2.5915735 -1.2753106 1.4938382
2.5698421 -1.272662 1.4909543
2.5524137 -1.2717899 1.4886413
2.5407588 -1.2733781 1.4870943
2.5310869 -1.2757869 1.4858103
2.5258446 -1.2801265 1.4851141
2.5241055 -1.286015 1.4848826
2.5151777 -1.28864 1.4836974
2.492841 -1.2851118 1.4807333
2.2534316 -1.2891742 1.4489582
2.2458146 -1.2912545 1.4479469
2.2309759 -1.2896057 1.4459777
2.2218421 -1.290808 1.4447653
2.2056305 -1.2883089 1.442614
2.19347 -1.2878258 1.4410001
2.1790903 -1.2861211 1.4390918
2.166718 -1.2853924 1.4374497
2.1486309 -1.2815888 1.4350497
2.1303871 -1.2776067 1.4326286
2.1222632 -1.2789112 1.4315503
2.1164742 -1.2814212 1.4307817
2.1152539 -1.2863548 1.4306192
2.1103733 -1.2893059 1.4299712
2.1030922 -1.290929 1.4290047
2.0917487 -1.2902989 1.4274992
2.0839164 -1.2915325 1.4264596
2.0803626 -1.2950795 1.4259875
2.0791838 -1.2999212 1.4258305
2.0815561 -1.3067302 1.4261447
2.0827467 -1.3128916 1.4263021
2.08038 -1.317064 1.4259875
2.0736403 -1.318759 1.4250928
2.0666103 -1.3202538 1.4241596
2.0616193 -1.3228717 1.423497
2.0581412 -1.3263279 1.4230349
2.0581455 -1.3317653 1.4230349
2.0581498 -1.3372025 1.4230349
2.0604744 -1.3439845 1.4233427
2.0651352 -1.3521385 1.4239604
2.0698171 -1.3603295 1.4245811
2.0721684 -1.3671761 1.4248924
2.0729561 -1.3731126 1.4249963
2.0007479 -1.3674889 1.4154133
1.9962255 -1.370008 1.4148128
1.9879632 -1.3702077 1.4137162
1.9754068 -1.3677164 1.41205
1.9511803 -1.3579346 1.4088356
1.9451033 -1.3593082 1.408029
1.9402401 -1.3614079 1.4073832
1.9381866 -1.3652434 1.4071103
1.933066 -1.367137 1.4064305
1.9211688 -1.3647187 1.4048517
1.9116046 -1.3637189 1.4035825
1.8975742 -1.359821 1.4017208
1.8828243 -1.3553883 1.3997636
1.8744609 -1.3549831 1.3986536
1.8669428 -1.3550798 1.3976558
1.8650416 -1.3587769 1.397403
1.8601648 -1.3605275 1.3967556
1.8498143 -1.358676 1.3953822
1.8430232 -1.3591048 1.3944807
1.8357549 -1.3591834 1.3935161
1.8284131 -1.3591751 1.3925416
1.8208706 -1.3589945 1.3915406
1.8155131 -1.3602308 1.3908294
1.8092271 -1.3608173 1.3899951
1.7986965 -1.3585188 1.3885977
1.7916896 -1.3585415 1.3876678
1.787563 -1.3604777 1.3871198
1.7823374 -1.3616447 1.3864262
1.7780067 -1.363395 1.3858511
1.7709349 -1.3632444 1.3849126
1.7622795 -1.3619674 1.383764
1.7550311 -1.3616163 1.382802
1.7503531 -1.3630079 1.382181
1.7451344 -1.3639987 1.3814883
1.7401537 -1.3651282 1.3808271
1.7360255 -1.3668287 1.3802791
1.7315066 -1.3682327 1.3796792
1.7276233 -1.3700616 1.3791635
1.721699 -1.3704233 1.3783772
1.7106152 -1.3670827 1.3769065
1.705678 -1.368073 1.3762512
1.6994388 -1.3681041 1.3754231
3.8635292 0.3573567 1.6529835
3.8370905 0.34373653 1.6495404
