# .PCD v0.7 - Point Cloud Data file format
VERSION 0.7
FIELDS x y z
SIZE 4 4 4
TYPE F F F
COUNT 1 1 1
WIDTH 1499
HEIGHT 1
VIEWPOINT 0 0 0 1 0 0 0
POINTS 1499
DATA ascii
2.9207635 0.69057584 0.86449957
2.9474354 0.69014394 0.86189306
2.9853406 0.69273651 0.85818851
3.0015335 0.68905115 0.85660625
3.009331 0.68295288 0.85584474
3.0300133 0.68034279 0.85382372
3.0333853 0.67292285 0.85349476
3.0414619 0.66674769 0.85270596
3.0646765 0.66455173 0.85043746
3.0973685 0.66472089 0.84724259
3.1220288 0.66261971 0.84483278
3.1407857 0.65886259 0.84300005
3.1478314 0.65201855 0.84231204
3.156327 0.64550114 0.84148228
3.1683364 0.63981295 0.84030914
3.1994104 0.63875878 0.83727247
3.2654402 0.64605534 0.83081901
3.2928612 0.64368272 0.82813948
3.338789 0.64556909 0.82365096
3.3456132 0.63799286 0.8229847
3.3699305 0.63445103 0.8206085
3.4607184 0.64606571 0.81173521
3.4875684 0.64264929 0.80911154
3.525593 0.64159429 0.8053956
3.5291443 0.63268459 0.8050493
3.5291519 0.6229794 0.8050493
3.5562205 0.6191268 0.80240428
3.6215475 0.62329447 0.79601979
3.6534934 0.62006688 0.79289806
3.6941326 0.6184721 0.78892666
3.7523184 0.62025571 0.78324032
3.7880821 0.6171782 0.77974546
3.8356745 0.61626709 0.77509457
3.853723 0.60927343 0.77333117
3.8695045 0.60174 0.77178961
3.8645446 0.5901475 0.77227521
3.8881896 0.58398211 0.76996493
3.9597046 0.5865916 0.76297581
3.9830258 0.57997513 0.76069725
4.0253215 0.57665563 0.75656414
4.0762386 0.57463634 0.75158834
4.1710529 0.58001971 0.74232209
4.2506418 0.58225894 0.73454404
4.2959652 0.57825172 0.73011506
4.3193755 0.57034075 0.72782791
4.3262267 0.55958509 0.7271592
4.3612885 0.55334127 0.72373319
4.3844266 0.5450145 0.72147262
4.4198589 0.53847563 0.71801049
4.4791975 0.53539991 0.71221173
4.5589557 0.53506637 0.70441735
4.6654887 0.53824389 0.69400603
4.7992964 0.54478395 0.68092901
4.8523588 0.53912103 0.67574382
4.856204 0.52631176 0.67536908
4.8246346 0.50864673 0.67845559
4.8139067 0.49394324 0.67950511
4.7755737 0.47568211 0.68325269
4.8036103 0.46614507 0.6805135
6.2711234 0.49916568 0.5370965
6.2255564 0.47732857 0.54155129
6.1467524 0.45248428 0.54925454
6.0252361 0.42400447 0.56113207
5.9127913 0.39703235 0.57212293
5.9958715 0.38823035 0.56400442
6.0252762 0.37430087 0.56113195
6.086452 0.362887 0.55515444
6.1213231 0.34899244 0.55174756
6.2439032 0.34181476 0.53976893
6.3861127 0.33545518 0.52587181
6.4955254 0.3259106 0.51518005
6.5494986 0.31185493 0.50990659
6.6364179 0.29973516 0.50141323
6.7571278 0.28933445 0.48961747
6.9648538 0.28368831 0.46931767
7.137423 0.27480733 0.45245385
7.3315449 0.26620093 0.43348366
7.4556527 0.25274488 0.42135614
7.6747708 0.24347755 0.39994335
7.9465184 0.23555872 0.3733871
8.0885944 0.22021055 0.35950381
8.2676945 0.20567393 0.34200221
8.3491402 0.18621987 0.33404428
8.5638981 0.17131999 0.3130579
8.6777792 0.15173155 0.30193037
8.5659246 0.12428868 0.31286353
8.5743084 0.10098061 0.31204599
12.643608 -0.12755552 -0.085613251
12.603307 -0.16228037 -0.081672072
12.52096 -0.19662687 -0.073621988
12.710659 -0.23228146 -0.092157722
13.390529 -0.27349988 -0.15859556
14.118527 -0.31903297 -0.22973657
14.556021 -0.36429226 -0.27248764
14.945394 -0.41111651 -0.31053603
15.204222 -0.45744193 -0.33582652
15.404311 -0.50384116 -0.35537708
15.472204 -0.54794049 -0.36200845
15.356269 -0.58717954 -0.35067546
15.456061 -0.63251555 -0.36042452
15.534877 -0.67768753 -0.36812305
15.491839 -0.71881866 -0.36391401
15.609905 -0.76607132 -0.37544858
15.540871 -0.80607402 -0.36869907
15.679663 -0.85504222 -0.38225865
15.954423 -0.91126096 -0.40910554
17.216959 -1.0188377 -0.53248
18.007231 -1.1082255 -0.60970318
18.388874 -1.1790904 -0.64699435
18.550789 -1.239153 -0.66281319
18.167021 -1.2665673 -0.62530673
18.545538 -1.3408182 -0.662292
18.893038 -1.4150729 -0.69624591
19.268179 -1.4931653 -0.73290086
20.586575 -1.6416663 -0.86173117
20.921545 -1.7234557 -0.89446032
21.774355 -1.8474554 -0.97779262
21.874031 -1.9153618 -0.9875282
21.614473 -1.9538361 -0.96215951
21.883863 -2.0364802 -0.98847926
21.952297 -2.1027298 -0.99516213
21.883959 -2.1568129 -0.98847926
21.241192 -2.1562645 -0.92566431
20.574671 -2.1498728 -0.86052859
20.070848 -2.1560779 -0.8112911
19.513365 -2.1540017 -0.75681078
19.037472 -2.1574633 -0.71030331
18.633533 -2.1660941 -0.67082715
18.293901 -2.1796379 -0.63763511
18.105345 -2.2084904 -0.61920583
18.486549 -2.3026519 -0.6564523
19.038734 -2.4192886 -0.7104063
19.769941 -2.5607915 -0.78185332
19.748812 -2.6125045 -0.77978432
19.281654 -2.6072593 -0.73413134
18.797689 -2.5972567 -0.686836
18.640965 -2.6280961 -0.67151737
18.403809 -2.6471601 -0.64833963
18.57065 -2.7208481 -0.66463864
18.643106 -2.7821269 -0.6717149
19.194105 -2.9126828 -0.72555172
18.986643 -2.9350142 -0.70527554
18.438513 -2.9052987 -0.65171111
17.613045 -2.8303635 -0.57104683
17.134399 -2.8046236 -0.52427292
16.490889 -2.7502561 -0.4613893
15.858091 -2.6940687 -0.39955258
15.196554 -2.6297128 -0.33490837
14.883824 -2.6195958 -0.30434728
14.514836 -2.5982702 -0.26828909
14.307936 -2.6027007 -0.24806881
13.872066 -2.5661144 -0.20547628
13.345071 -2.5110095 -0.15397918
13.152368 -2.5130689 -0.13514674
12.985688 -2.5188167 -0.1188575
12.937888 -2.5456598 -0.11418402
12.88706 -2.571671 -0.10921466
12.494187 -2.5321875 -0.070823908
11.42948 -2.3606021 0.033212781
11.240903 -2.3550267 0.051641107
10.866229 -2.3113985 0.08825314
10.268143 -2.2206569 0.14669478
9.8272982 -2.1587684 0.18977201
9.4457588 -2.1067421 0.22705436
9.2969704 -2.101474 0.24159431
9.1955843 -2.1054678 0.25150281
9.1003141 -2.1102209 0.26081359
8.9026432 -2.0921123 0.28012973
8.6551056 -2.0619011 0.30431843
8.3221598 -2.0112278 0.33685195
8.2128468 -2.0093536 0.34753442
8.0939159 -2.0046749 0.35915673
8.0200167 -2.0097845 0.36637908
7.9218507 -2.0087936 0.37597239
7.8560638 -2.0149498 0.38240206
7.7293167 -2.0061054 0.39478773
7.622314 -2.0013597 0.40524447
7.4846711 -1.9884994 0.41869473
7.2578788 -1.9527394 0.44085544
7.1984043 -1.957751 0.44666809
7.1788054 -1.9725598 0.4485845
6.8610539 -1.9673164 0.47963685
6.8255186 -1.9766634 0.48311031
6.7333307 -1.9704973 0.49211895
6.3925943 -1.8959411 0.52541208
6.3168502 -1.8926147 0.53281391
6.1784639 -1.871419 0.54633629
6.0964909 -1.865335 0.55434662
6.0182071 -1.8598485 0.5619967
5.9613204 -1.8600699 0.5675559
5.9497943 -1.8731152 0.56868345
6.0246353 -1.9113472 0.56137246
6.0182595 -1.9260228 0.5619967
6.0197463 -1.9430052 0.56185269
5.9773254 -1.946797 0.56599855
5.9441071 -1.9531471 0.56924546
5.9326477 -1.9659752 0.5703662
5.9136381 -1.9764081 0.57222486
5.8977795 -1.9877182 0.57377553
5.8736424 -1.9963393 0.57613498
5.6734591 -1.9490044 0.59569454
6.9127884 -2.3609827 0.47461164
6.7720165 -2.3345683 0.48836672
6.7351012 -2.3411689 0.49197471
4.9937973 -1.9667839 0.66211665
4.979651 -1.9753212 0.66349983
4.9451156 -1.976251 0.66687483
4.8854198 -1.9676297 0.67270797
4.8139033 -1.9542502 0.67969596
4.7347369 -1.937589 0.68743134
4.7030554 -1.9385513 0.69052756
4.6145229 -1.917563 0.69917786
4.4778562 -1.8775181 0.71253067
4.4199204 -1.8673122 0.71819168
4.3681159 -1.859187 0.72325361
4.3089385 -1.8478717 0.72903597
4.2639966 -1.8418797 0.73342758
4.2386022 -1.8434504 0.73590934
3.488914 -1.668552 0.80915993
3.4716837 -1.6705915 0.81084388
3.4563224 -1.67336 0.81234539
3.4391875 -1.6752572 0.81402004
3.4082146 -1.6896141 0.81704795
3.3732464 -1.6830859 0.82046479
3.2713201 -1.64575 0.83042276
3.229233 -1.6353788 0.83453494
3.1969182 -1.6292984 0.8376925
3.1738219 -1.6273313 0.83994943
3.1595581 -1.6293727 0.84134352
3.1482406 -1.6327233 0.8424499
3.1370037 -1.6360499 0.84354824
3.1370106 -1.6446719 0.84354824
3.1370173 -1.653294 0.84354824
3.1370242 -1.6619161 0.84354824
3.1314392 -1.6678277 0.84409451
3.1286576 -1.6750751 0.84436691
3.1286643 -1.6836741 0.84436691
3.1286712 -1.6922731 0.84436691
3.1342599 -1.7036391 0.84382159
3.1274915 -1.7088764 0.84448349
3.0789492 -1.6931397 0.84922612
3.0461605 -1.6850752 0.85242981
3.0248127 -1.6826276 0.85451585
3.0120392 -1.6844305 0.85576427
3.0094659 -1.6913874 0.85601634
3.0163004 -1.7031746 0.8553493
3.0399184 -1.7236876 0.85304284
3.0516431 -1.7381409 0.85189813
3.0533924 -1.7474396 0.85172796
3.0473464 -1.7526481 0.85231918
3.0289633 -1.7513018 0.85411555
3.0159702 -1.7527182 0.85538542
2.9921279 -1.7482682 0.85771507
2.9695554 -1.7443688 0.85992074
2.9389281 -1.7359986 0.86291319
2.9150167 -1.7311027 0.86524957
2.8888309 -1.7248358 0.8678081
2.8753285 -1.725374 0.86912769
2.8576293 -1.7235268 0.87085724
2.8457327 -1.7247936 0.87201995
2.8290455 -1.723331 0.87365055
2.8122313 -1.7217054 0.87529361
2.7952983 -1.7199208 0.8769483
2.7798243 -1.7188665 0.87846047
2.7666974 -1.7190583 0.87974334
2.7490771 -1.7166172 0.88146508
2.730063 -1.7132813 0.88332301
2.7133036 -1.7111382 0.88496065
2.6903584 -1.7053267 0.88720256
2.6819549 -1.7078359 0.88802403
2.6720545 -1.7094251 0.88899165
2.6646304 -1.7124121 0.8897174
2.6485682 -1.7102695 0.89128697
2.6149714 -1.6976609 0.89456928
2.5956602 -1.6933618 0.89645612
2.5856972 -1.6945405 0.89742982
2.4133437 -1.6247329 0.9142679
2.4171116 -1.633675 0.91390038
2.4250131 -1.6451861 0.91312909
2.4300494 -1.6549664 0.91263765
2.4329391 -1.6634389 0.9123559
2.4230778 -1.6639603 0.91331965
2.4207044 -1.6691265 0.91355199
2.4031405 -1.664705 0.91526812
2.3530512 -1.6395969 0.92016119
2.3342619 -1.634114 0.92199695
2.3190815 -1.6308322 0.92348027
2.3174477 -1.6361545 0.92364031
2.3133121 -1.6398563 0.92404479
2.3067002 -1.641934 0.92469108
2.2971191 -1.6420466 0.92562741
2.2699897 -1.6306602 0.92827779
2.2558382 -1.6276255 0.92966056
2.2381907 -1.6222136 0.93138468
2.2254095 -1.6199189 0.93263364
2.2088561 -1.615052 0.93425095
2.1881263 -1.6073128 0.9362762
2.1800876 -1.6079468 0.93706179
2.1704741 -1.6074792 0.93800128
2.1628449 -1.6082966 0.93874687
2.1584845 -1.6112851 0.93917322
2.1505635 -1.6118292 0.93994737
2.1453166 -1.6141548 0.94046032
2.1413991 -1.6173627 0.94084346
2.1308305 -1.615973 0.94187611
2.1005433 -1.6009052 0.94483483
2.0886235 -1.5984083 0.9459995
2.0815876 -1.5992461 0.94668716
2.077894 -1.6023815 0.94704837
2.0662389 -1.59991 0.94818717
2.0577736 -1.5996213 0.94901443
2.0481832 -1.5984905 0.94995159
2.0405424 -1.598691 0.95069832
2.0291288 -1.5961607 0.95181352
2.0196097 -1.5949229 0.95274371
2.0056503 -1.5904441 0.95410752
1.9944018 -1.5878429 0.95520663
1.9868351 -1.5878444 0.95594609
1.9772574 -1.5863435 0.95688194
1.9709249 -1.5871562 0.95750087
1.9603013 -1.5847934 0.95853889
1.9460382 -1.5796983 0.95993233
1.9398224 -1.5804591 0.96053988
2.330291 0.7454288 0.91577375
2.3313282 0.73941028 0.91567004
2.3318498 0.73319089 0.91561806
2.3318548 0.72677445 0.91561806
2.3458889 0.72559416 0.91420805
2.3873858 0.73451173 0.91003758
2.4065688 0.73499501 0.90810996
2.4236689 0.73461235 0.90639174
2.4357293 0.73231018 0.90518004
2.458034 0.73362446 0.90293872
2.4733422 0.73231983 0.90140057
2.4810913 0.72825515 0.90062225
2.4792464 0.72077835 0.90080827
2.4986398 0.72071278 0.89885956
2.5554802 0.73348677 0.89314699
2.578373 0.73430467 0.89084661
2.5900676 0.73118699 0.88967174
2.5987861 0.72700059 0.88879603
2.615169 0.72533154 0.88714993
2.6280437 0.7224077 0.88585651
2.654649 0.72393334 0.883183
2.6733212 0.72272277 0.88130689
2.6858528 0.71942163 0.88004792
2.7018661 0.71716917 0.87843901
2.718883 0.71514785 0.87672925
2.7240472 0.70929396 0.87621081
2.7390363 0.70648384 0.8747049
2.7418957 0.69983172 0.87441814
2.7484453 0.69429755 0.87376046
2.7661943 0.69213688 0.87197715
2.783164 0.6896435 0.87027216
2.8167391 0.69202065 0.8668983
2.837239 0.6903404 0.86483848
2.8671005 0.69129419 0.86183786
2.8823559 0.6878382 0.86030519
2.9092698 0.68765485 0.85760087
2.9469182 0.69038475 0.85381758
3.0035353 0.6982646 0.8481279
3.0205536 0.69475818 0.84641814
3.0159128 0.6851604 0.8468852
3.0436182 0.68445635 0.84410143
3.0496695 0.67772281 0.84349382
3.0612662 0.67244565 0.84232903
3.0650916 0.66503835 0.84194523
3.0886688 0.66280782 0.83957624
3.117811 0.66189671 0.83664805
3.143549 0.65994811 0.83406198
3.1627781 0.65619898 0.83213007
3.1763368 0.65091407 0.83076805
3.1907232 0.64576089 0.82932293
3.2233822 0.64503562 0.82604128
3.2822418 0.6505208 0.82012641
3.2961936 0.64485276 0.81872499
3.3254986 0.64276814 0.81578052
3.336797 0.63627923 0.81464571
3.3512173 0.63045526 0.8131972
3.4356213 0.64065754 0.80471522
3.4584742 0.63639963 0.80241925
3.4894264 0.63383555 0.79930925
3.4993742 0.62644053 0.79831034
3.5088775 0.6188935 0.79735601
3.5690315 0.62225378 0.7913112
3.6434898 0.62833893 0.78382897
3.6708982 0.62409258 0.78107524
3.700207 0.62009108 0.77813053
3.7505808 0.62025428 0.77306879
3.7741141 0.61470211 0.77070451
3.827925 0.61507177 0.76529747
3.8703442 0.61290002 0.7610352
3.886126 0.60531747 0.75945008
3.9635818 0.58765292 0.75166839
3.9954238 0.5825851 0.74846923
4.0419908 0.58000135 0.74379033
4.1222014 0.58314502 0.73573023
4.203836 0.58609688 0.72752708
4.261569 0.58447993 0.72172612
4.2861104 0.57691622 0.71926069
4.2936096 0.56637394 0.71850801
4.3056579 0.55653691 0.71729803
4.3469286 0.55134869 0.71315145
4.3714805 0.54328179 0.71068513
4.4075098 0.53686845 0.70706528
4.4749484 0.53506529 0.70028901
4.5433626 0.53303778 0.69341469
4.6195183 0.53177643 0.68576241
4.6982703 0.53047216 0.67784929
4.749135 0.52477205 0.67273873
4.7877479 0.51708519 0.66885948
4.7709007 0.50161099 0.67055345
4.7941518 0.49159607 0.66821796
4.7659554 0.47470954 0.67105258
4.8202252 0.46856073 0.66559988
5.1418085 0.49568132 0.63328409
5.2592134 0.49595442 0.62148684
5.3427048 0.49150947 0.61309779
5.3184309 0.47396216 0.61553824
5.3023744 0.45748988 0.61715293
5.3532152 0.44858631 0.61204505
5.7266884 0.47459158 0.57451522
6.0106082 0.48902091 0.54598504
6.2174649 0.493907 0.52519906
6.2072687 0.47577325 0.52622509
6.139812 0.45208052 0.53300524
6.0327969 0.42498878 0.54376066
5.9257312 0.39848134 0.55452091
5.9960198 0.38849089 0.54745901
6.0239625 0.37442723 0.54465234
6.0836334 0.36288473 0.53865731
6.1291718 0.34986147 0.53408253
6.255311 0.34293926 0.5214082
6.3567348 0.33344346 0.51121759
6.4697242 0.32423744 0.49986482
6.5242167 0.31028286 0.49439037
6.5818181 0.29623929 0.48860359
6.6660504 0.28361112 0.48014057
6.8484473 0.2766349 0.46181345
7.112093 0.2734932 0.43532169
7.3219118 0.2658439 0.41423923
7.4601192 0.25317007 0.40035272
7.6740117 0.24361804 0.37886095
7.8686543 0.23195478 0.35930353
8.0306826 0.2177273 0.34302354
8.2251396 0.20400414 0.3234852
8.3837109 0.18776539 0.3075527
8.6199875 0.17357111 0.28381211
8.6701908 0.15160415 0.27876925
8.5619583 0.12428552 0.28964692
8.5591936 0.10065106 0.28992665
12.426558 -0.19630136 -0.098654151
12.677247 -0.23210786 -0.12384093
13.561604 -0.27514061 -0.21270025
14.166227 -0.31968778 -0.27345097
14.67965 -0.36621791 -0.32503772
15.002313 -0.41223791 -0.35745597
15.230147 -0.45811445 -0.38034594
15.296544 -0.5015341 -0.38701427
15.296577 -0.54361129 -0.38701427
15.249149 -0.58433664 -0.38224542
15.497619 -0.63404274 -0.40720832
15.666271 -0.68240309 -0.42415082
15.622483 -0.72388709 -0.41974759
15.672334 -0.76882744 -0.42475319
15.533675 -0.80607975 -0.41081762
15.689914 -0.85583568 -0.42651296
15.888609 -0.90847766 -0.44647408
18.38036 -1.1790972 -0.69683111
18.28467 -1.2240328 -0.68721223
18.28471 -1.2743281 -0.68721223
18.408016 -1.3325422 -0.69959784
18.756969 -1.4065508 -0.73465562
18.641491 -1.4500884 -0.72304869
19.655401 -1.5748622 -0.82491946
21.169056 -1.7428155 -0.97700226
21.850893 -1.8542192 -1.0455066
22.856239 -1.9954942 -1.146515
22.856289 -2.0583634 -1.146515
22.361361 -2.0785437 -1.0967818
22.103302 -2.1170814 -1.0708481
21.671289 -2.1382391 -1.0274369
20.582323 -2.0949416 -0.91801751
19.755104 -2.0711071 -0.83489811
19.184547 -2.0683875 -0.77756703
18.67436 -2.068732 -0.72630179
18.333092 -2.0840905 -0.69200909
18.05036 -2.1039076 -0.6635977
17.776217 -2.1231227 -0.63604939
17.598049 -2.1517467 -0.61814427
17.193838 -2.1530569 -0.57752788
17.655016 -2.2553399 -0.62386012
18.909338 -2.4569223 -0.74988198
18.992186 -2.5192633 -0.75820184
18.365381 -2.4915795 -0.69522119
18.110535 -2.5088954 -0.66961181
17.964949 -2.5393403 -0.6549803
17.958424 -2.5878627 -0.65432096
18.144081 -2.6629653 -0.67297029
18.204601 -2.7214139 -0.67904675
18.576164 -2.8249857 -0.71637416
18.527191 -2.8688862 -0.71144974
18.191246 -2.8696151 -0.67769301
17.535801 -2.8198514 -0.61183596
17.084799 -2.798171 -0.5665195
16.483255 -2.750262 -0.5060786
15.85075 -2.6940746 -0.44252694
15.189519 -2.6297185 -0.37608981
14.845482 -2.6143801 -0.34152114
14.508117 -2.5982754 -0.30762303
14.478235 -2.6330485 -0.30461752
14.120573 -2.6105413 -0.26868045
13.463113 -2.5330017 -0.20262301
13.231206 -2.5283399 -0.17932069
12.897936 -2.5039034 -0.1458348
12.621967 -2.4882491 -0.11810577
12.635127 -2.5254333 -0.11942518
12.218768 -2.4807582 -0.077591777
11.215653 -2.3202548 0.023191333
10.741821 -2.2581065 0.070798397
10.224464 -2.1846907 0.12277806
9.9315977 -2.1537211 0.1522038
9.5352945 -2.0999873 0.19202107
9.256897 -2.0685101 0.21999288
9.1712999 -2.0759902 0.22859454
9.0960817 -2.085207 0.23615348
8.9797821 -2.0851576 0.24783951
8.7981806 -2.0702159 0.2660861
8.6086779 -2.0525291 0.28512663
8.3126802 -2.0099719 0.31486589
8.1898966 -2.0050197 0.32720327
8.0162868 -1.9877402 0.34464663
7.9463258 -1.9935526 0.351677
7.8599424 -1.9951247 0.36035717
7.782804 -1.9984173 0.36810857
7.629806 -1.9830604 0.38348109
7.5047951 -1.9736627 0.39604187
7.385294 -1.9649317 0.40804875
7.2745595 -1.9577219 0.41917521
7.2346048 -1.9676864 0.42319077
7.2213955 -1.9842242 0.42451942
7.315021 -2.0281193 0.41511512
6.2361617 -1.8540076 0.52350819
6.1182132 -1.8554239 0.53536016
6.10253 -1.8678318 0.53693712
6.0124779 -1.8590143 0.54598504
5.9585609 -1.860072 0.55140281
5.9477596 -1.8733258 0.55248928
6.0056615 -1.9066154 0.54667377
5.9949336 -1.9199604 0.54775286
5.986186 -1.9338372 0.54863292
5.9492521 -1.9391885 0.55234456
5.9163289 -1.9455539 0.55565333
5.9049716 -1.9583426 0.55679554
5.8427544 -1.9553537 0.56304705
5.7666883 -1.9477053 0.5706898
5.6747103 -1.9346346 0.57993102
5.5761471 -1.9189686 0.58983362
5.2973509 -1.8450884 0.61784202
5.1943712 -1.8264174 0.62818825
5.1259217 -1.8184193 0.63506562
5.1639175 -1.9443656 0.63125777
5.1437569 -1.9515018 0.63328409
5.1038942 -1.9515727 0.63728964
4.9597278 -1.9143202 0.65177286
4.9457674 -1.9229513 0.65317643
4.9180713 -1.9265436 0.65595973
4.9702902 -1.9590712 0.65071511
4.9469609 -1.9641799 0.65305972
4.9033866 -1.9616807 0.65743804
4.8122029 -1.9412203 0.6665988
4.7990608 -1.9495218 0.66791999
4.7517571 -1.9448476 0.67267281
4.7389421 -1.9530351 0.67396116
4.6472678 -1.9309317 0.68317115
4.4910483 -1.8834113 0.69886476
4.4189339 -1.8677255 0.70610976
4.3373327 -1.8479295 0.71430779
4.2702818 -1.8334204 0.72104406
4.2223072 -1.8261155 0.72586405
4.193563 -1.8262335 0.72875237
3.4838393 -1.6670468 0.80005479
3.4769485 -1.6736039 0.80074775
3.4479387 -1.6703697 0.80366248
3.4324114 -1.6729584 0.80522287
3.4061501 -1.6706692 0.80786151
3.3990932 -1.6768622 0.8085711
3.4218118 -1.6964734 0.80628985
3.3864024 -1.689779 0.80984735
3.2738707 -1.6476107 0.82115155
3.2260439 -1.6346003 0.82595623
3.1910832 -1.6272833 0.82946867
3.172353 -1.6273324 0.83135068
3.1609383 -1.6307055 0.83249795
3.1496055 -1.6340542 0.833637
3.1383538 -1.6373789 0.83476782
3.1355586 -1.644673 0.83504933
3.1355653 -1.653295 0.83504933
3.1355722 -1.6619172 0.83504933
3.132782 -1.6691829 0.83533025
3.1327887 -1.6777972 0.83533025
3.1327956 -1.6864116 0.83533025
3.1328025 -1.6950259 0.83533025
3.1328094 -1.7036403 0.83533025
3.1177185 -1.7047257 0.83684671
3.0621905 -1.6854521 0.84242475
3.0334797 -1.6793936 0.84530926
3.0145149 -1.6781181 0.84721482
3.0016391 -1.6798413 0.84850878
2.9965234 -1.6854701 0.84902322
3.0012858 -1.6961597 0.84854555
3.0270381 -1.7177465 0.8459596
3.0389192 -1.7322524 0.84476686
3.0414069 -1.741907 0.84451771
3.0354054 -1.7471085 0.8451212
3.0171578 -1.7458001 0.8469547
3.0042596 -1.7472353 0.84825087
2.9805906 -1.7428436 0.85062885
2.9581809 -1.7389981 0.8528803
2.9277725 -1.7307111 0.85593516
2.9040303 -1.7258743 0.85832042
2.8780289 -1.7196746 0.86093265
2.8669593 -1.7215168 0.86204511
2.8506763 -1.7204261 0.8636812
2.8375211 -1.7209778 0.86500311
2.8209224 -1.7195408 0.86667085
2.8019595 -1.7166909 0.86857605
2.7851419 -1.714942 0.87026584
2.7697725 -1.7139183 0.87181008
2.7567341 -1.7141328 0.87312025
2.7395377 -1.7119048 0.87484801
2.7273862 -1.7124728 0.87606907
2.7120481 -1.7111393 0.87761021
2.6959941 -1.7093073 0.87922323
2.6830542 -1.7091969 0.88052344
2.6708179 -1.7094262 0.88175303
2.6586928 -1.7096534 0.88297141
2.6426945 -1.7075311 0.88457876
2.6215651 -1.7022828 0.88670146
2.5963769 -1.6945038 0.88923192
2.5829799 -1.6936328 0.89057791
2.4122269 -1.6247338 0.90773022
2.4186552 -1.6353108 0.90708512
2.4289196 -1.6482891 0.90605479
2.4322891 -1.6570517 0.9057169
2.435668 -1.6658387 0.9053781
2.4241858 -1.6653544 0.90653181
2.419142 -1.6688496 0.90703893
2.4030683 -1.6653618 0.90865374
2.3600903 -1.6447455 0.91297066
2.333957 -1.634608 0.91559577
2.3170252 -1.6302052 0.91729683
2.3072455 -1.6302978 0.91827953
2.3107202 -1.6388769 0.91793108
2.3063898 -1.6424247 0.91836649
2.2980947 -1.6433724 0.91920006
2.278753 -1.6370652 0.92114305
2.2647638 -1.6341597 0.92254853
2.247174 -1.6288078 0.92431557
2.2439852 -1.6328756 0.9246363
2.232425 -1.6313707 0.92579782
2.1991122 -1.6153084 0.92914391
2.1827548 -1.610407 0.93078715
2.172153 -1.6092827 0.93185234
2.1658432 -1.6109952 0.93248647
2.1614687 -1.6139836 0.9329263
2.1525793 -1.6138775 0.93381953
2.1482582 -1.6168422 0.93425399
2.1443284 -1.620051 0.93464911
2.1372497 -1.6210709 0.93536043
2.1255937 -1.6188886 0.93653154
2.0952475 -1.6036754 0.93957961
2.0848587 -1.6021962 0.9406234
2.0752141 -1.6011808 0.94159234
2.0652828 -1.5999107 0.94259024
2.0554461 -1.5986526 0.94357854
2.0438807 -1.5961176 0.94474047
2.0367258 -1.5966516 0.94545949
2.0281858 -1.5961585 0.94631755
2.0186751 -1.5949237 0.94727314
2.0087838 -1.5933633 0.94826686
2.0014303 -1.5935788 0.94900584
1.9946153 -1.5941439 0.94969064
1.9846377 -1.592373 0.95069307
1.9732276 -1.5895021 0.95183933
1.9575075 -1.5834125 0.95341849
1.9429272 -1.5780745 0.9548831
1.9382114 -1.5799336 0.95535713
2.3323088 0.74661863 0.90913326
2.3323138 0.74019802 0.90913326
2.332319 0.73377728 0.90913326
2.332324 0.72735655 0.90913326
2.3456974 0.72592783 0.90775269
2.3927906 0.73692417 0.90288973
2.4149168 0.73847556 0.90060532
2.434314 0.73890865 0.8986026
2.4465678 0.73664629 0.89733768
2.4626446 0.73569131 0.89567798
2.477684 0.73427749 0.8941254
2.4834528 0.72949779 0.89353025
2.4849241 0.72317636 0.89337879
2.502913 0.72260523 0.89152163
2.5559504 0.73405802 0.88604498
2.5778997 0.73455143 0.88377887
2.595572 0.73346806 0.88195443
2.6025927 0.72869122 0.88123
2.6155818 0.72587454 0.87988919
2.633023 0.72446489 0.87808865
2.6629145 0.72705984 0.87500238
2.6784115 0.7247889 0.8734026
2.6907439 0.72140777 0.87212968
2.7074628 0.71936727 0.87040371
2.7314329 0.7195431 0.86792898
2.7363377 0.71357 0.86742306
2.7406192 0.70737493 0.86698157
2.7449141 0.70116067 0.86653864
2.7519953 0.69577897 0.86580801
2.7761652 0.69556332 0.86331266
2.7942834 0.69338775 0.86144233
2.8161876 0.69224489 0.85918099
2.8359244 0.69033933 0.8571434
2.8639338 0.69075346 0.85425168
2.8773069 0.68675709 0.8528713
2.8978555 0.68475413 0.85074997
2.9417889 0.68930984 0.84621382
2.9962831 0.69660759 0.84058708
3.0108624 0.69243705 0.83908224
3.0105731 0.68406713 0.83911276
3.0401988 0.68390429 0.83605421
3.0520453 0.67875051 0.8348316
3.0729814 0.67597473 0.83267027
3.0738339 0.66774082 0.83258295
3.0981433 0.66567791 0.83007336
3.1227071 0.66354752 0.82753754
3.1533899 0.6628592 0.82436979
3.2100756 0.66863322 0.81851697
3.2408671 0.66756296 0.81533808
3.2543314 0.6619997 0.81394845
3.2527375 0.65264678 0.8141138
3.2853296 0.65164411 0.81074899
3.2931201 0.64447856 0.80994523
3.3214848 0.6421771 0.80701703
3.3320832 0.63553119 0.80592334
3.3441908 0.62917852 0.80467385
3.3915715 0.63088071 0.79978198
3.4491031 0.63463128 0.79384202
3.4744861 0.63083994 0.79122174
3.496757 0.6262182 0.78892279
3.5286093 0.62357438 0.78563452
3.6248481 0.63469338 0.77569771
3.6851568 0.63760352 0.76947099
3.7029457 0.63121116 0.76763499
3.7192175 0.62440491 0.76595563
3.7421784 0.61888361 0.76358557
3.7429607 0.60873997 0.76350564
3.7992191 0.60968518 0.75769722
3.8458326 0.60841846 0.75288486
3.8757434 0.60364723 0.74979722
4.0026855 0.58425522 0.73669302
4.0339241 0.57888079 0.73346829
4.1411343 0.58685231 0.722399
4.222115 0.58963871 0.71403819
4.2595944 0.58447838 0.7101692
4.2707148 0.5746392 0.70902187
4.265532 0.56201756 0.70955795
4.2848911 0.55345356 0.70755994
4.3467088 0.5516367 0.7011779
4.3749037 0.54414463 0.69826758
4.3962674 0.53543234 0.69606268
4.454217 0.53220594 0.69008017
4.5145445 0.52901828 0.68385202
4.6051331 0.52996671 0.67449933
4.6797314 0.52809942 0.66679782
4.730216 0.52239382 0.66158617
4.7563357 0.51301384 0.65889031
4.766531 0.50131416 0.6578387
4.8046913 0.49330273 0.65389955
4.7756348 0.47626665 0.65690076
4.8670049 0.47485152 0.64746767
5.1663346 0.49905995 0.61656225
5.2567768 0.49595246 0.60722494
5.3429399 0.49183312 0.59832954
5.3159671 0.47396019 0.60111582
5.3052611 0.45810029 0.60222244
5.3282919 0.44607362 0.59984565
5.4948831 0.44958505 0.58264613
5.9714675 0.48515162 0.53343958
6.1584854 0.48809215 0.51413119
6.186161 0.473932 0.51127499
6.1079693 0.44923338 0.51934969
6.0181813 0.42385945 0.52862179
5.922986 0.39847913 0.53845191
6.0108433 0.39007005 0.52938211
6.0330043 0.37545553 0.52709532
6.0913725 0.3637729 0.52107024
6.1263328 0.34985921 0.51746202
6.2595844 0.34350234 0.50370532
6.3982048 0.33682048 0.48939443
6.4897952 0.32592675 0.47993922
6.5399237 0.31160238 0.47476494
6.5705557 0.29567975 0.47160375
6.6210513 0.2808812 0.4663918
6.7100019 0.2682015 0.45720923
7.0147266 0.26788649 0.42574888
7.1689878 0.25734469 0.40982342
7.3568988 0.24777326 0.39042389
7.6138649 0.24071115 0.36389458
7.7786584 0.22775841 0.34688216
7.9421725 0.21384001 0.33000159
8.0913267 0.19840333 0.31460387
8.3589134 0.18691933 0.28697854
8.6039219 0.1731146 0.2616843
8.6326685 0.15043491 0.25871837
8.5371704 0.12361503 0.26858008
8.5164671 0.099512309 0.27071947
12.333487 -0.19598041 -0.12333429
12.671374 -0.23211253 -0.15821552
13.742397 -0.27687275 -0.26878655
14.247273 -0.32074296 -0.32090771
14.805517 -0.36817831 -0.37853813
15.059722 -0.41336894 -0.4047792
15.289425 -0.45946264 -0.42849052
15.35637 -0.50307822 -0.43539834
15.289492 -0.54361695 -0.42849052
15.242085 -0.58434224 -0.42359293
15.49044 -0.63404846 -0.44922948
15.659014 -0.68240881 -0.46662939
15.615247 -0.72389281 -0.46210718
15.665074 -0.76883316 -0.46724796
15.52648 -0.80608559 -0.45293617
15.700189 -0.85663104 -0.47086596
15.833476 -0.90620196 -0.48462296
18.399368 -1.1806456 -0.7495091
17.995028 -1.2075157 -0.70776165
17.851212 -1.2481874 -0.69291055
17.838285 -1.2964799 -0.69157219
18.049139 -1.3596992 -0.71333563
18.131338 -1.415102 -0.72181773
19.036541 -1.5306463 -0.81526339
22.885485 -2.1246696 -1.2125884
22.335245 -2.1386526 -1.1557795
21.572475 -2.1300988 -1.0770303
19.326445 -1.9771198 -0.84515703
18.694038 -1.9687718 -0.7798667
18.276802 -1.9784696 -0.73678935
17.903845 -1.990423 -0.69828367
17.678394 -2.0158923 -0.67500544
17.50209 -2.0454431 -0.65680063
17.24411 -2.0649536 -0.63016474
16.993628 -2.0838969 -0.60430276
16.674788 -2.0934947 -0.57138431
16.950985 -2.172328 -0.59989285
17.680746 -2.3080413 -0.6752243
18.102066 -2.4092751 -0.71871388
17.619528 -2.397531 -0.66889632
17.514875 -2.4323742 -0.65808892
17.378611 -2.462435 -0.64401817
17.458935 -2.5211613 -0.65230632
17.546268 -2.5813007 -0.66131794
17.647146 -2.6438348 -0.67172754
18.089016 -2.7560492 -0.71733785
18.042553 -2.7989988 -0.71253765
17.904512 -2.8279946 -0.69828367
17.415842 -2.8028221 -0.64783418
16.994186 -2.7853529 -0.60430276
16.47562 -2.7502682 -0.55076778
15.843409 -2.6940804 -0.48550129
15.182484 -2.629724 -0.41727126
14.807302 -2.6091864 -0.37853813
14.501397 -2.5982809 -0.34695685
14.622273 -2.6589193 -0.35943139
14.307207 -2.6442235 -0.3269043
13.557134 -2.5507605 -0.24947274
13.285874 -2.5392783 -0.22146809
12.811282 -2.489177 -0.1724745
12.206553 -2.4123449 -0.11004698
11.646212 -2.3405337 -0.052202106
11.254946 -2.2979059 -0.011810303
10.885901 -2.2574267 0.026287436
10.505947 -2.2127748 0.065510988
9.957634 -2.1325128 0.12211359
9.6589823 -2.0996268 0.15294439
9.3395262 -2.0608406 0.1859225
9.205966 -2.0588419 0.19971162
9.0800877 -2.0577219 0.21270746
8.9986172 -2.0653622 0.22111917
8.8622952 -2.0607271 0.23519307
8.6875906 -2.0469613 0.25322872
8.5388918 -2.0379839 0.26858008
8.2641087 -1.9999639 0.29694611
8.1104307 -1.9878749 0.3128112
7.9355731 -1.9700823 0.33086246
7.8713889 -1.977016 0.3374896
7.7989388 -1.9816554 0.34496987
7.7278113 -1.9862099 0.35231358
7.5605559 -1.9672674 0.36957991
7.4063368 -1.9505743 0.38550043
7.3268342 -1.9514023 0.39370871
7.2812471 -1.9602249 0.3984158
7.2436919 -1.9708154 0.40229398
7.2312708 -1.9875861 0.40357774
6.1500525 -1.8312595 0.51519239
6.0476375 -1.8365345 0.52576637
5.9891696 -1.8367049 0.53180277
5.9601226 -1.8449197 0.53480232
5.925992 -1.8515152 0.53832662
5.9149475 -1.8646148 0.53946793
5.9570303 -1.8932006 0.53512555
5.9263878 -1.9005361 0.53828979
5.888052 -1.9054091 0.54224801
5.8522987 -1.9108483 0.54593968
5.825253 -1.9187346 0.54873276
5.8142371 -1.9313834 0.54987097
5.753881 -1.9287186 0.5561021
5.6695766 -1.9182528 0.56480503
5.5617762 -1.8999305 0.5759331
5.4051642 -1.8655229 0.59209919
5.2812395 -1.8407178 0.60489154
5.1846614 -1.8240609 0.61486107
5.1161499 -1.8160125 0.62193364
5.0283437 -1.8012506 0.63099778
5.004456 -1.8071716 0.63346452
4.9111857 -1.8978637 0.64310133
4.8838615 -1.9015725 0.64592278
4.8718209 -1.9106542 0.64716655
4.9215479 -1.9421619 0.64203519
4.8813057 -1.9409339 0.64618981
4.8189483 -1.9313096 0.65262687
4.7553582 -1.9208832 0.65919125
4.7176275 -1.9198079 0.66308659
4.6950998 -1.9242703 0.66541278
4.7083492 -1.9422271 0.66404641
4.6513133 -1.9333094 0.66993409
4.4824162 -1.8808829 0.6873672
4.4141102 -1.866647 0.69441807
4.3273067 -1.8447911 0.70337808
4.2459302 -1.8245976 0.71177799
4.1813874 -1.8106424 0.71844029
4.1461172 -1.8080376 0.72208148
4.0750675 -1.7908328 0.72941536
3.5077534 -1.6878159 0.78797776
3.4480348 -1.6711178 0.79414189
3.4354005 -1.6749921 0.79544657
3.404573 -1.6706705 0.79862893
3.3784182 -1.6682794 0.80132902
3.4135752 -1.6934668 0.79770142
3.380054 -1.6876056 0.80116177
3.2703221 -1.6466817 0.81248736
3.2228584 -1.6338227 0.81738657
3.1881571 -1.6266136 0.82096857
3.1737509 -1.6286694 0.82245612
3.1651726 -1.6333768 0.82334214
3.1566403 -1.638059 0.8242234
3.1453331 -1.6413785 0.82539111
3.1397133 -1.6473482 0.82597178
3.1369143 -1.6546397 0.82626128
3.1313243 -1.6605695 0.82683891
3.1257546 -1.6664784 0.82741445
3.1257615 -1.6750774 0.82741445
3.1257682 -1.6836765 0.82741445
3.1285613 -1.6936501 0.82712692
3.1313586 -1.7036414 0.82683891
3.1162748 -1.7047269 0.82839632
3.0607727 -1.6854533 0.83412492
3.0320752 -1.6793948 0.83708721
3.013119 -1.6781192 0.83904415
3.0002491 -1.6798424 0.84037304
2.9980595 -1.68697 0.84059972
3.0055401 -1.6990696 0.83982837
3.0326071 -1.7213594 0.83703572
3.0435319 -1.7353891 0.83590901
3.037744 -1.7407274 0.83650696
3.029511 -1.7447467 0.83735728
3.0131719 -1.7444314 0.83904415
2.9977398 -1.7445083 0.84063745
2.9766843 -1.7414939 0.84281099
2.9539673 -1.7374711 0.84515601
2.9272301 -1.7311515 0.84791589
2.9013152 -1.7251312 0.85059094
2.8804057 -1.7216996 0.85274935
2.8656318 -1.7215179 0.85427463
2.8539894 -1.7229806 0.8554768
2.8401413 -1.7231578 0.85690647
2.821883 -1.7208036 0.85879135
2.8006623 -1.7166919 0.86098188
2.7816463 -1.7137029 0.86294484
2.7641304 -1.7114565 0.86475307
2.7511387 -1.7116822 0.86609435
2.7361348 -1.7106885 0.86764336
2.7255192 -1.7121273 0.86873943
2.7087007 -1.7099357 0.87047565
2.6926787 -1.7081122 0.87212968
2.6797645 -1.7080076 0.87346292
2.6655271 -1.707059 0.87493277
2.6534443 -1.7072966 0.87618023
2.6338267 -1.7030247 0.8782053
2.6147749 -1.6989802 0.8801719
2.592984 -1.6932008 0.88242114
2.5757222 -1.6900095 0.88420302
2.4133201 -1.6260865 0.90096456
2.4192014 -1.6363353 0.9003582
2.4269557 -1.6477721 0.89955854
2.4303212 -1.6565309 0.89921176
2.4329734 -1.6648641 0.89893866
2.4196036 -1.6631919 0.90031886
2.4146955 -1.6667612 0.90082586
2.3982053 -1.6629965 0.90252805
2.364748 -1.6483902 0.90598106
2.3390937 -1.6385657 0.90862882
2.3144255 -1.6292303 0.91117489
2.3042004 -1.6290296 0.91223055
2.3051007 -1.635945 0.91213816
2.3022983 -1.6404681 0.9124279
2.2968163 -1.6432337 0.91299403
2.2846148 -1.6415821 0.91425365
2.2720871 -1.6396494 0.91554689
2.2548583 -1.6345526 0.9173252
2.2478702 -1.6361318 0.91804683
2.2347922 -1.6336296 0.91939676
2.2089326 -1.6225343 0.92206568
2.1922538 -1.6174428 0.92378724
2.1805873 -1.6156282 0.92499161
2.168406 -1.6134022 0.92624897
2.1619885 -1.6150148 0.92691171
2.1515827 -1.6138784 0.92798591
2.1479204 -1.6172916 0.92836428
2.144645 -1.6209497 0.92870277
2.1397943 -1.6235055 0.92920375
2.1303394 -1.6228509 0.93017983
2.098032 -1.6062822 0.933514
2.0851309 -1.6030596 0.93484569
2.0730286 -1.6003247 0.93609488
2.0643265 -1.5999115 0.93699324
2.057935 -1.6010797 0.93765324
2.0562179 -1.6055212 0.93783092
2.0555346 -1.6106881 0.93790185
2.0440111 -1.6081184 0.93909132
2.0200624 -1.5965873 0.94156295
2.0085104 -1.5938361 0.9427554
1.9993644 -1.5927575 0.94369954
1.9917529 -1.5927402 0.94448537
1.9814798 -1.5907457 0.94554585
1.9689957 -1.587081 0.94683444
1.9547485 -1.582056 0.94830489
1.9407827 -1.5771595 0.94974637
1.936602 -1.5794085 0.95017815
2.3312275 0.74661779 0.90280426
2.3312325 0.74019706 0.90280426
2.3312378 0.73377633 0.90280426
2.3347912 0.7286911 0.90242803
2.353045 0.72907805 0.90049303
2.4021368 0.7408005 0.89528811
2.4250059 0.74260056 0.89286369
2.4433589 0.74262452 0.89091825
2.457062 0.74086154 0.88946575
2.4709201 0.73907876 0.88799691
2.4861937 0.73772514 0.88637793
2.494791 0.733922 0.88546693
2.5000484 0.72889733 0.88491005
2.5141511 0.72692895 0.88341528
2.5661922 0.73801112 0.87789774
2.5818093 0.73630273 0.8762424
2.5991764 0.73510432 0.87440151
2.6071892 0.73065042 0.8735525
2.6233108 0.7288692 0.8718437
2.6469395 0.7294935 0.86933893
2.6674657 0.72896528 0.86716306
2.6806788 0.72593451 0.86576271
2.6915615 0.7220757 0.86460942
2.7124884 0.72138381 0.86239111
2.7297904 0.71942222 0.8605572
2.7396483 0.71501482 0.85951257
2.745784 0.70938814 0.85886264
2.7516389 0.7036407 0.85824251
2.7572083 0.69777322 0.8576526
2.7849538 0.69863236 0.85471141
2.8074703 0.69775999 0.8523246
2.8209209 0.69405079 0.85089916
2.8392003 0.69169915 0.84896165
2.8662837 0.69183254 0.84609067
2.8880541 0.69027102 0.84378302
2.904052 0.68692601 0.84208751
2.9489038 0.69172883 0.83733261
2.9830043 0.69324541 0.83371764
2.9974611 0.68907523 0.83218551
3.0012302 0.68186319 0.83178657
3.0382879 0.68376541 0.82785821
3.0589945 0.68102157 0.82566339
3.0914154 0.68131375 0.82222664
3.0913699 0.67278624 0.82223219
3.1167612 0.670959 0.81954074
3.1420362 0.66896164 0.81686169
3.172296 0.66811073 0.81365407
3.2246051 0.67271864 0.80810869
3.2528157 0.67095649 0.80511844
3.261467 0.66415632 0.8042019
3.2600882 0.65483236 0.80434889
3.2920277 0.65364969 0.80096322
3.2954237 0.64540172 0.80060393
3.3136704 0.64067876 0.79867005
3.324224 0.63404059 0.79755187
3.336885 0.62783563 0.79621035
3.3875041 0.63030469 0.79084426
3.4475045 0.63462996 0.78448367
3.4660101 0.62929499 0.78252238
3.4941409 0.62599587 0.77954066
3.6085844 0.64147294 0.76740789
3.6765049 0.64624357 0.76020765
3.73577 0.64878964 0.75392509
3.7316139 0.63762295 0.75436658
3.7304876 0.62711036 0.7544868
3.7285128 0.61642957 0.75469708
3.7333407 0.60713959 0.75418609
3.7770071 0.60559249 0.74955738
3.8278654 0.60522377 0.74416625
3.8654068 0.60198438 0.74018699
4.0031137 0.58467281 0.72559088
4.026763 0.5779227 0.72308457
4.1192112 0.58328974 0.71328425
4.215086 0.5887481 0.70312059
4.2598367 0.58485913 0.69837713
4.2778482 0.57618463 0.69646859
4.2830825 0.5652771 0.69591469
4.3050632 0.55709136 0.69358528
4.3518834 0.55279601 0.68862247
4.3900814 0.54687417 0.68457389
4.407115 0.53744066 0.68276906
4.4512105 0.53206003 0.67809522
4.5107937 0.52876711 0.67177939
4.5926647 0.52843845 0.66310072
4.6465731 0.52360523 0.65738666
4.6990623 0.51827335 0.65182304
4.7230315 0.50867486 0.64928305
4.7454104 0.49872717 0.6469115
4.9454293 0.48521265 0.62570989
5.208251 0.50462747 0.597848
5.2769303 0.49872765 0.59056824
5.3418193 0.49199411 0.58369023
5.3135033 0.47395822 0.58669335
5.2974615 0.457486 0.58839524
5.3066349 0.4439241 0.58742404
5.4496965 0.44492808 0.57225877
5.9372625 0.48180404 0.52057159
6.094502 0.48175326 0.50390351
6.1525583 0.47082838 0.49775028
6.0629196 0.44508722 0.5072546
5.9744015 0.41994676 0.51663995
5.9185281 0.3983182 0.52256453
6.002182 0.38953969 0.51369762
6.036139 0.3759701 0.51009911
6.0885491 0.36377063 0.5045445
6.1112976 0.34886143 0.50213432
6.2029319 0.3392604 0.49242157
6.357698 0.33396038 0.47601604
6.4569302 0.32373375 0.46549803
6.5186672 0.31031299 0.45895463
6.5552344 0.29484427 0.45507979
6.6179829 0.28087875 0.44842935
6.631803 0.26351696 0.44696569
6.8609838 0.25891456 0.42267203
7.1950674 0.25901344 0.3872577
7.3645186 0.24836719 0.36929607
7.501811 0.23513672 0.35474366
7.630064 0.22071111 0.34114957
7.8531661 0.20992643 0.31750065
8.1376181 0.20055607 0.28734833
8.4586744 0.19109529 0.25331575
8.6565399 0.1752381 0.23234248
8.6856537 0.15241584 0.22925818
8.5959568 0.1256237 0.23876876
8.567976 0.10113463 0.24173701
12.437058 -0.19639263 -0.16837728
13.009118 -0.23434505 -0.22901475
13.860102 -0.27802387 -0.31921887
14.340487 -0.32194504 -0.37013817
14.861361 -0.36910826 -0.42534912
15.117624 -0.41450974 -0.45251024
15.34922 -0.46082261 -0.47705615
15.484788 -0.50620162 -0.49142337
15.416757 -0.54708302 -0.48420823
15.349321 -0.58760655 -0.47705615
15.39266 -0.63122165 -0.48164678
15.532928 -0.6783725 -0.49651158
15.470321 -0.71883583 -0.48987174
15.588223 -0.7660886 -0.50236595
15.519284 -0.80609131 -0.49505484
15.728098 -0.85822117 -0.51718545
15.810849 -0.90547729 -0.52595341
18.220242 -1.1710917 -0.78133702
17.89492 -1.202127 -0.74684894
17.842939 -1.248194 -0.74133468
17.73984 -1.2906878 -0.73040211
17.811735 -1.3443478 -0.73801863
17.704737 -1.3859155 -0.72667301
17.864735 -1.446267 -0.74362838
17.623844 -1.8169349 -0.71806145
17.597895 -1.8629268 -0.71530712
17.450348 -1.8966045 -0.69966352
17.278458 -1.9269665 -0.68144
17.236044 -1.9700536 -0.67694032
17.068336 -1.9993314 -0.6591599
16.822784 -2.0190375 -0.63312888
16.506155 -2.0292988 -0.59956384
16.417894 -2.0644462 -0.59020483
16.612324 -2.1328492 -0.61080945
17.222164 -2.2530499 -0.67544532
17.525427 -2.3383262 -0.70758486
17.494247 -2.3825912 -0.70427597
17.407467 -2.4194355 -0.69507396
17.321541 -2.4559159 -0.6859622
17.278913 -2.4978065 -0.68144
17.27895 -2.5453765 -0.68144
17.364531 -2.6050401 -0.69050658
17.538214 -2.6778743 -0.7089119
17.420044 -2.7087944 -0.69638276
17.242701 -2.7302089 -0.67758167
16.956947 -2.7341263 -0.64729035
16.703207 -2.7414367 -0.62039208
16.44042 -2.7459214 -0.59253538
16.016844 -2.7231283 -0.54763639
15.307903 -2.6513734 -0.47249162
14.80044 -2.6091919 -0.41870177
14.392722 -2.5810649 -0.37548459
14.43506 -2.6279504 -0.37996852
14.127786 -2.6140912 -0.34739745
13.483879 -2.5389001 -0.27914703
13.229632 -2.5302718 -0.25219619
12.69938 -2.4698248 -0.19599247
11.607772 -2.3023694 -0.08029151
11.213499 -2.2601268 -0.038500428
10.85655 -2.2228398 -0.00066554546
10.585342 -2.2001951 0.028081656
10.282463 -2.1698349 0.06018579
9.7516184 -2.0923998 0.11645091
9.5580502 -2.0801518 0.13696909
9.363677 -2.0666735 0.15757209
9.3364019 -2.0867884 0.16046518
9.2241888 -2.0888996 0.17236042
9.0098505 -2.068645 0.19507945
8.8709888 -2.0634913 0.20979893
8.6835651 -2.0469644 0.22966528
8.5557518 -2.0425918 0.24321371
8.3312798 -2.0158682 0.2670064
8.1605568 -2.0000937 0.28510255
7.9588904 -1.9762796 0.30647796
7.8677416 -1.9770188 0.31614017
7.7608333 -1.9735534 0.32747257
7.6567912 -1.9701809 0.33850121
7.4708328 -1.9465367 0.35821164
7.3629494 -1.940859 0.36964726
7.2929878 -1.9439148 0.37706363
7.2628055 -1.9564797 0.38026428
7.2628212 -1.9764729 0.38026428
7.2478313 -1.9926511 0.38185453
6.069211 -1.8099309 0.50677794
6.0418606 -1.8357067 0.50967938
5.9587946 -1.8289304 0.51848418
5.9228754 -1.8351103 0.52229226
5.8736587 -1.8372728 0.52750963
5.8418818 -1.8442221 0.53087866
5.8321824 -1.8574598 0.53190804
5.7943511 -1.8623304 0.53591865
5.7597079 -1.8679439 0.53959149
5.7509522 -1.8811594 0.54052073
5.7274914 -1.8898594 0.54300845
5.7075367 -1.8995049 0.54512453
5.6350775 -1.8928022 0.55280495
5.5798192 -1.8910676 0.55866241
5.481029 -1.8753258 0.56913316
5.3531952 -1.849818 0.58268201
5.2640824 -1.8360083 0.5921272
5.1764331 -1.8221807 0.6014173
5.1100907 -1.8148124 0.60844922
5.0212178 -1.7996769 0.61786878
4.9882283 -1.8025655 0.62136602
4.8596916 -1.8803408 0.63499808
4.8122149 -1.8766785 0.6400305
4.8243895 -1.8943225 0.63874149
4.8321524 -1.9104264 0.6379199
4.8423266 -1.9274578 0.63684285
4.7852521 -1.9196754 0.64289236
4.6923065 -1.8982145 0.6527431
4.655549 -1.8973304 0.65663952
4.6325064 -1.9014294 0.65908241
4.5880175 -1.8972341 0.66379809
4.5500584 -1.8952988 0.66782176
4.4689255 -1.876475 0.67642057
4.4011931 -1.8624185 0.68359941
4.3154211 -1.840921 0.69268966
4.2361536 -1.8215181 0.70109081
4.1652732 -1.8050108 0.70860302
4.1247072 -1.8002421 0.71290284
4.0858293 -1.79593 0.71702367
3.5326896 -1.6994673 0.77565062
3.3470414 -1.6548769 0.79532635
3.3811693 -1.6795243 0.79171073
3.3514712 -1.675311 0.79485857
3.247627 -1.6369852 0.80586326
3.2095778 -1.6283942 0.80989587
3.1837883 -1.6252749 0.81262946
3.1751516 -1.6300087 0.81354535
3.1694219 -1.6360581 0.81415319
3.1608627 -1.6407415 0.81506091
3.1495199 -1.6440572 0.81626356
3.1410682 -1.6486896 0.81715989
3.1354611 -1.6546409 0.81775475
3.1298738 -1.6605707 0.81834757
3.1243064 -1.6664795 0.81893826
3.1243134 -1.6750785 0.81893826
3.1243203 -1.6836776 0.81893826
3.1271119 -1.6936512 0.81864309
3.1299081 -1.7036426 0.81834757
3.1148312 -1.704728 0.81994587
3.0629156 -1.6872416 0.82544774
3.0336649 -1.6809071 0.82854784
3.0130165 -1.6787764 0.83073652
2.9975784 -1.6791902 0.83237302
2.9928362 -1.6850046 0.83287621
3.0156698 -1.7050122 0.83045745
3.0457366 -1.7288951 0.82727224
3.0487676 -1.7388538 0.82695174
3.0434854 -1.7444736 0.82751215
3.0236344 -1.7423921 0.82961631
3.0091932 -1.7430651 0.83114719
2.9912422 -1.7417908 0.83304995
2.9735041 -1.7405316 0.83493018
2.9495854 -1.7358519 0.83746529
2.9246545 -1.7304935 0.84010756
2.9011698 -1.7257835 0.84259665
2.883127 -1.7239146 0.84450912
2.8666446 -1.722803 0.84625626
2.8573134 -1.7255437 0.84724563
2.8411243 -1.7244327 0.84896165
2.822845 -1.7220683 0.85089916
2.8000033 -1.7170502 0.85332
2.7825627 -1.714944 0.85516864
2.765027 -1.712688 0.85702729
2.7520211 -1.712908 0.85840601
2.7330413 -1.7096474 0.8604176
2.7185273 -1.7088432 0.86195612
2.7032743 -1.707533 0.8635729
2.6873085 -1.7057266 0.86526519
2.6744399 -1.7056336 0.8666293
2.6602526 -1.704699 0.86813319
2.646215 -1.7037743 0.8696211
2.6247294 -1.6983788 0.87189823
2.6080139 -1.6956921 0.87366992
2.589597 -1.6919004 0.87562186
2.5684986 -1.6864032 0.87785792
2.4233027 -1.6262144 0.89324421
2.4144151 -1.6274418 0.89418644
2.4186363 -1.6366775 0.8937397
2.4233186 -1.6462213 0.89324421
2.4266758 -1.6549691 0.89288908
2.4293213 -1.6632918 0.89260936
2.4168169 -1.6621505 0.89393473
2.4110894 -1.6651987 0.89454216
2.3924251 -1.66005 0.89652026
2.364563 -1.6489681 0.89947277
2.3358979 -1.6372216 0.9025104
2.3077028 -1.6256177 0.90549827
2.3007908 -1.6275265 0.90623111
2.2949915 -1.6301148 0.90684605
2.2949965 -1.6364305 0.90684605
2.2897601 -1.6393369 0.90740138
2.2805884 -1.639644 0.90837365
2.270195 -1.6390996 0.90947533
2.2565744 -1.6363719 0.91091895
2.2494154 -1.6378434 0.91167796
2.2371285 -1.6358694 0.91298026
2.2153432 -1.6274931 0.91528893
2.2018447 -1.6245465 0.91671956
2.1904616 -1.6229481 0.91792607
2.1744528 -1.6181638 0.91962266
2.1653211 -1.6179535 0.92059064
2.152282 -1.6150336 0.92197257
2.1472542 -1.6175169 0.9225058
2.1436515 -1.6209506 0.92288798
2.139735 -1.624148 0.92330343
2.1319399 -1.6246414 0.92412978
2.1042457 -1.6112729 0.92706436
2.0897505 -1.6069542 0.92860055
2.0755701 -1.6027763 0.93010336
2.0678866 -1.6030856 0.93091786
2.0630283 -1.6053458 0.93143308
2.0611782 -1.6097093 0.93162954
2.0545826 -1.6106888 0.93232882
2.0456896 -1.6099925 0.93327141
2.0168059 -1.5949252 0.93633199
2.0041404 -1.5913631 0.93767422
1.9930875 -1.5888952 0.93884569
1.986323 -1.5894744 0.9395628
1.9781696 -1.5890061 0.94042706
1.9665082 -1.5859313 0.94166297
1.9526007 -1.5811461 0.94313681
1.9427476 -1.579267 0.94418108
1.9388421 -1.5817258 0.94459534
2.3301463 0.74661696 0.89647526
2.3301513 0.74019623 0.89647526
2.3301566 0.7337755 0.89647526
2.3337083 0.72869015 0.89608938
2.3632894 0.73331416 0.8928715
2.4076204 0.74324763 0.88804877
2.4315696 0.74543083 0.88544369
2.4507649 0.74574471 0.8833558
2.4628263 0.74336481 0.88204414
2.4745073 0.74078178 0.88077378
2.4937973 0.74085248 0.87867564
2.5061164 0.73834562 0.87733597
2.5465598 0.74566293 0.87293637
2.5600891 0.74336541 0.87146497
2.5805609 0.74339676 0.86923826
2.5849628 0.73779607 0.86875999
2.594125 0.73379314 0.86776376
2.6001797 0.72868931 0.86710566
2.6181765 0.72755504 0.86514825
2.6434312 0.72873437 0.86240125
2.6602535 0.72699451 0.86057162
2.6727214 0.72373867 0.8592158
2.679734 0.71864545 0.85845351
2.6966276 0.71668959 0.85661614
2.7137353 0.71470881 0.85475558
2.7256 0.71097744 0.85346538
2.7452273 0.70961154 0.85133064
2.7568531 0.70565403 0.85006648
2.7633798 0.70006394 0.84935701
2.7836623 0.69863129 0.8471511
2.8147542 0.70035279 0.84376913
2.8264344 0.69609177 0.84249902
2.8459492 0.69409025 0.84037662
2.8689742 0.69301271 0.83787227
2.8978531 0.69351208 0.8347311
2.9120073 0.6896069 0.83319193
2.949024 0.69215262 0.82916546
2.9715095 0.69038463 0.82671988
2.9800584 0.68458962 0.82579058
2.9828184 0.67714238 0.82549095
3.0368788 0.68376434 0.81961036
3.0652161 0.683097 0.8165282
3.1087751 0.6863687 0.81178999
3.1179483 0.68024409 0.8107928
3.1366906 0.67659068 0.80875456
3.1604023 0.67412972 0.80617565
3.1866808 0.67220068 0.80331755
3.2409921 0.67728209 0.79740971
3.2664578 0.67478085 0.79464006
3.2716923 0.6670866 0.79407138
3.2623889 0.65577292 0.7950843
3.2946253 0.65465581 0.79157811
3.3027639 0.647542 0.79069352
3.327858 0.64443111 0.78796428
3.33533 0.63702381 0.78715223
3.3429112 0.62960076 0.78632826
3.3887839 0.63096046 0.78133863
3.4381795 0.63286936 0.77596575
3.4541602 0.62698984 0.7742281
3.4883823 0.6250751 0.77050591
3.6280084 0.64610088 0.75531715
3.69801 0.65127122 0.74770272
3.7486811 0.65192068 0.74219126
3.7420189 0.64018416 0.74291688
3.7327287 0.6279366 0.74392843
3.7267838 0.61642826 0.7445761
3.7287741 0.60656285 0.74436045
3.7510147 0.60073936 0.74194187
3.8000164 0.60007584 0.73661202
3.8466535 0.59868193 0.73153949
3.9921429 0.58299792 0.71571624
4.0248957 0.57792115 0.71215421
4.1312714 0.58577633 0.70058316
4.2218299 0.59027183 0.69073278
4.2663755 0.58632708 0.68588799
4.2810869 0.57707 0.68428868
4.2915797 0.56702709 0.68314821
4.3243017 0.56057918 0.67958963
4.3735137 0.55661511 0.67423725
4.4090195 0.55020356 0.67037588
4.437737 0.54253662 0.66725296
4.4756579 0.53612256 0.66312891
4.5359297 0.53286445 0.65657353
4.6077766 0.53098488 0.64875901
4.6638398 0.52642035 0.64266139
4.730691 0.52308178 0.63539052
4.7519264 0.51301026 0.63308156
4.7690234 0.50225592 0.63122284
5.1828551 0.51601553 0.58620977
5.257894 0.51117182 0.57804823
5.2972574 0.50152671 0.57376766
5.3434119 0.4924815 0.5687483
5.3110394 0.47395626 0.57227093
5.2950053 0.45748404 0.57401633
5.2711296 0.44022217 0.5766148
5.3668337 0.43615207 0.56620556
5.8552055 0.47335908 0.51308274
6.0140367 0.47369924 0.49580693
6.1015353 0.46596321 0.4862904
6.0133262 0.44049111 0.49588692
5.951354 0.41800925 0.50262964
5.9398417 0.40054598 0.50388324
