# .PCD v0.7 - Point Cloud Data file format
VERSION 0.7
FIELDS x y z
SIZE 4 4 4
TYPE F F F
COUNT 1 1 1
WIDTH 1559
HEIGHT 1
VIEWPOINT 0 0 0 1 0 0 0
POINTS 1559
DATA ascii
9.8052254 -0.10652588 1.6151855
9.9093533 -0.13264588 1.6201247
9.8938122 -0.15921296 1.6193863
9.8435917 -0.18557124 1.6170026
9.7961617 -0.21167755 1.6147515
9.9224453 -0.23908897 1.6207416
9.9820786 -0.26640058 1.6235697
9.9399691 -0.29257265 1.6215711
10.047791 -0.32107145 1.6266854
10.28988 -0.35279465 1.6381694
10.387458 -0.38258082 1.6427976
10.557195 -0.41469961 1.6508491
10.65092 -0.44561917 1.6552944
10.913737 -0.48218814 1.6677616
10.743599 -0.50582743 1.6596889
10.70759 -0.53335607 1.6579796
11.250204 -0.67348814 1.6837174
9.9085207 -0.71736622 1.6200631
9.788209 -0.73673129 1.6143545
10.096466 -0.78228986 1.6289769
10.096486 -0.80937195 1.6289768
10.227632 -0.84536898 1.6351978
10.137144 -0.86640632 1.6309038
9.9086466 -0.87683475 1.6200629
9.748703 -0.89124978 1.6124741
8.6542788 -0.90088189 1.5605518
8.682126 -0.92658412 1.5618718
8.6914597 -0.95073032 1.5623138
7.5161304 -0.92308378 1.5065544
6.8186836 -0.94278526 1.4734651
6.7505112 -0.95296383 1.4702305
6.6813264 -0.9626534 1.4669478
6.3797193 -0.94307876 1.4526393
6.2629399 -0.94535851 1.447099
6.2020731 -0.95426214 1.444211
6.1914201 -0.96948564 1.4437051
6.2074456 -0.98825443 1.4444648
6.207459 -1.0049039 1.4444648
6.2181935 -1.0230588 1.4449732
6.2289648 -1.0412763 1.4454836
6.2289782 -1.0579834 1.4454836
6.2397866 -1.0762931 1.4459958
6.2290044 -1.0913976 1.4454836
6.2128949 -1.1056248 1.4447188
4.5460901 -1.0565008 1.3656434
4.551208 -1.0697258 1.3658857
4.5006485 -1.0715775 1.3634869
4.4767818 -1.0786953 1.3623543
3.7610357 -0.98064303 1.3284013
3.7575548 -0.98995018 1.3282359
3.7558208 -0.99963391 1.3281531
3.7506123 -1.008513 1.3279058
3.7700694 -1.0230759 1.3288283
3.8225667 -1.0454836 1.3313181
3.8450458 -1.0610598 1.3323839
3.8532839 -1.0733441 1.3327744
3.834533 -1.079133 1.3318844
3.8084674 -1.0830293 1.3306477
3.7821867 -1.0867324 1.3294008
3.7663696 -1.0929142 1.3286501
3.7799339 -1.1064456 1.3292931
3.8277798 -1.1288159 1.3315623
3.8562894 -1.1464463 1.3329141
3.8592501 -1.1575593 1.3330542
3.8332379 -1.1610463 1.33182
3.8207722 -1.1680032 1.3312283
2.5100574 -1.168714 1.2690446
2.5030835 -1.1725937 1.2687137
2.5065737 -1.1807392 1.2688791
2.5040061 -1.1863956 1.268757
2.493279 -1.1886396 1.268248
2.4806893 -1.190045 1.2676506
2.4600704 -1.187995 1.2666725
2.4407482 -1.186385 1.2657559
2.4171541 -1.1828462 1.2646366
2.4027901 -1.1831495 1.2639552
2.4028738 -1.1896267 1.2639589
2.3923242 -1.191475 1.2634584
2.3681638 -1.1873052 1.2623123
2.3508689 -1.1860313 1.2614918
2.336926 -1.1861511 1.2608304
2.3271153 -1.1880392 1.2603648
2.3060098 -1.1848061 1.2593637
2.2958636 -1.1864073 1.2588822
2.2784035 -1.1846329 1.2580539
2.2666631 -1.1853772 1.2574968
2.2549076 -1.186052 1.2569392
2.2424762 -1.1863509 1.2563493
2.2248342 -1.1841614 1.2555125
2.2112107 -1.1837559 1.2548661
2.1943414 -1.1817514 1.254066
2.1820948 -1.1818422 1.253485
2.1685841 -1.1812662 1.252844
2.1538894 -1.1800514 1.2521468
2.1432121 -1.1806899 1.2516402
2.1283786 -1.1792614 1.2509365
2.1055696 -1.173875 1.2498547
2.093277 -1.1735084 1.2492715
2.0846269 -1.1748662 1.2488611
2.0805023 -1.1784151 1.2486652
2.0711055 -1.1793214 1.2482195
2.0650027 -1.1818233 1.2479297
2.0570874 -1.1833818 1.2475542
2.0415986 -1.1810732 1.2468195
2.0274277 -1.1793506 1.2461472
2.0142033 -1.178035 1.2455199
1.997424 -1.1748247 1.2447239
1.9851077 -1.1738261 1.2441397
1.9731482 -1.1729466 1.2435722
1.9631649 -1.1730326 1.2430986
1.9583652 -1.1757803 1.2428708
1.9516985 -1.1775194 1.2425545
1.942629 -1.1779512 1.2421242
1.9265996 -1.1746329 1.2413639
1.9093373 -1.1705694 1.240545
1.8957967 -1.1684128 1.2399027
1.8871442 -1.1688226 1.2394922
1.8822168 -1.1712072 1.2392583
1.8741053 -1.1718292 1.2388735
1.8692459 -1.1741894 1.2386428
1.8539232 -1.1707625 1.2379161
1.849242 -1.1731414 1.2376939
1.840263 -1.1731056 1.237268
1.8362324 -1.175786 1.2370765
1.8232355 -1.1734118 1.2364601
1.8137296 -1.1729369 1.2360091
1.7983805 -1.1690998 1.235281
1.7881799 -1.1681118 1.2347971
1.7799354 -1.168188 1.234406
1.7683698 -1.1663113 1.2338574
1.7641252 -1.1685998 1.2336559
1.7611712 -1.1716142 1.2335156
1.7590246 -1.175083 1.2334137
1.7558126 -1.1779168 1.2332611
1.7476109 -1.1777987 1.2328721
1.7349802 -1.17502 1.232273
1.7230082 -1.1725645 1.2317051
1.7158144 -1.1728935 1.2313638
1.6998532 -1.1679337 1.2306067
1.6918641 -1.1676836 1.2302277
1.6880164 -1.1698929 1.2300451
1.6670069 -1.170601 1.2290483
1.6649514 -1.1738044 1.2289507
1.656719 -1.1731819 1.2285601
1.6456186 -1.1707363 1.2280335
1.6336088 -1.1676646 1.227464
1.6271634 -1.1680098 1.2271581
1.6238655 -1.1702983 1.2270015
1.6201644 -1.1723146 1.226826
1.6123453 -1.1717014 1.226455
1.6078246 -1.1731454 1.2262404
1.6050048 -1.175652 1.2261066
1.604353 -1.1795346 1.2260755
1.5990144 -1.1803937 1.2258222
1.5952542 -1.1822455 1.2256438
1.5930854 -1.1851112 1.2255408
1.5880965 -1.1861253 1.225304
1.5834453 -1.1873338 1.2250834
1.5734353 -1.1849923 1.2246085
1.5657518 -1.1841339 1.224244
1.5585928 -1.1835821 1.2239044
1.5542597 -1.1848735 1.2236987
1.554755 -1.1893693 1.223722
1.5552058 -1.1938381 1.2237433
8.1391582 2.1145792 1.5148659
8.1025143 2.0826294 1.5132225
8.0843229 2.0559115 1.5124061
8.0302038 2.0195847 1.5099794
8.030221 1.9980296 1.5099794
8.0302382 1.9764744 1.5099794
8.0302553 1.9549192 1.5099794
8.0302725 1.933364 1.5099794
8.0302896 1.9118091 1.5099794
7.9946165 1.8811861 1.5083795
7.9592595 1.8508343 1.5067936
7.9242134 1.8207496 1.505222
7.9068146 1.7951947 1.5044411
7.9828591 1.7924709 1.5078492
7.9828758 1.7710434 1.5078492
8.0065804 1.7552526 1.5089111
8.0065975 1.7337614 1.5089111
8.0304441 1.7178127 1.5099794
8.0785484 1.7073129 1.5121348
8.1028252 1.6911411 1.5132223
8.1272488 1.674872 1.5143164
8.1272669 1.6530572 1.5143164
8.1028776 1.6258931 1.5132223
8.0786343 1.5988919 1.5121348
8.106389 1.583138 1.5133783
8.1889992 1.5788159 1.5170807
8.2390261 1.5672591 1.5193223
8.3409176 1.5661044 1.5238891
8.396554 1.5550102 1.5263821
8.5119829 1.5555985 1.5315554
8.53508 1.5373137 1.5325898
8.4801712 1.5036938 1.5301279
8.5389738 1.4922376 1.5327626
8.6346292 1.4874548 1.5370499
8.7689381 1.4893847 1.5430692
8.7750673 1.4669741 1.5433433
8.7324886 1.435686 1.5414338
8.6130466 1.3908761 1.536079
8.4853792 1.3452576 1.5303555
8.4323635 1.3132794 1.5279784
9.2417755 0.41185984 1.5642226
9.2584038 0.3880218 1.5649672
9.3055515 0.36578628 1.5670795
9.4247341 0.34709716 1.5724204
9.4974108 0.32544032 1.575677
9.6613684 0.30771795 1.5830244
9.6985912 0.28345159 1.584692
9.7625179 0.26010731 1.5875561
9.838809 0.23690617 1.5909747
10.013545 0.21690282 1.5988054
9.9995594 0.1895532 1.5981773
10.015484 0.16321418 1.5988903
9.89429 0.13286972 1.5934575
9.8427572 0.10498047 1.5911471
9.8601179 0.07896775 1.591924
9.7974043 0.051217392 1.5891124
9.8389769 0.0256657 1.5909747
9.9509459 0.00095893443 1.595992
9.8127346 -0.027472623 1.5897967
9.8853769 -0.053095244 1.5930514
9.8529158 -0.079855897 1.5915954
9.9400349 -0.10591183 1.5954992
10.01515 -0.13245627 1.5988649
10.075263 -0.15938979 1.601558
10.031147 -0.18626899 1.59958
9.9779205 -0.21285389 1.5971934
9.9913998 -0.23975222 1.5977966
10.037208 -0.26709992 1.5998486
10.22064 -0.29666835 1.6080686
10.113825 -0.32227713 1.6032807
10.359257 -0.35425794 1.6142792
10.458206 -0.38427451 1.6187127
10.599049 -0.41587293 1.6250241
10.724679 -0.44780472 1.6306536
11.123152 -0.48871925 1.6485113
11.245098 -0.64331508 1.6539711
11.245122 -0.67349219 1.6539711
9.8910809 -0.71662724 1.5932834
9.8913612 -0.74318612 1.5932951
10.091906 -0.78229356 1.6022817
10.124377 -0.81149578 1.6037359
10.223012 -0.84537268 1.6081556
10.132565 -0.86641002 1.6041011
9.904171 -0.87683833 1.5938643
9.7999001 -0.89548278 1.5891906
8.6875153 -0.9274205 1.5393339
7.5389671 -0.92578578 1.4878576
6.8156037 -0.94278777 1.4554371
6.7728605 -0.95598865 1.4535208
6.6910801 -0.96420991 1.4498553
6.3806057 -0.94354975 1.4359409
6.2538948 -0.9445709 1.430262
6.1779861 -0.95150292 1.4268596
6.1568604 -0.96528172 1.4259124
6.1674252 -0.98322856 1.4263852
6.1833339 -1.0019684 1.4270974
6.2046685 -1.0215557 1.428053
6.226151 -1.0412786 1.4290152
6.2369552 -1.0595592 1.4294988
6.2369685 -1.0762954 1.4294988
6.2315822 -1.0922149 1.4292567
6.2190318 -1.1070031 1.4286937
4.7856693 -1.0148311 1.3644557
4.7856793 -1.0276724 1.3644557
4.5287886 -1.0534604 1.3529413
4.5272789 -1.0653051 1.3528732
4.4688239 -1.0654759 1.3502533
4.453105 -1.0742027 1.3495486
3.7593372 -0.98064435 1.3184583
3.778918 -1.0255219 1.3193343
3.8395915 -1.0498794 1.3220527
3.8515353 -1.0630112 1.3225875
3.8574412 -1.0747594 1.3228518
3.8328011 -1.0791343 1.3217473
3.8007174 -1.0815527 1.3203093
3.7765114 -1.0857509 1.3192244
3.7607348 -1.0919303 1.318517
3.7663653 -1.1034442 1.3187689
3.8138876 -1.1257055 1.3208981
3.8502278 -1.1453309 1.322526
3.8586886 -1.1578692 1.3229048
3.8396819 -1.163205 1.3220527
3.8298838 -1.1708933 1.3216133
2.5100901 -1.1691885 1.2624621
2.5136008 -1.1773553 1.2626191
2.515363 -1.1848216 1.2626979
2.5131106 -1.1906348 1.2625968
2.493304 -1.1891201 1.2617091
2.4755089 -1.1883428 1.2609116
2.4364951 -1.1785131 1.2591634
2.4264889 -1.1807966 1.2587148
2.4045725 -1.1779351 1.2577327
2.3978653 -1.1814986 1.257432
2.3905907 -1.1847804 1.2571058
2.382201 -1.1875374 1.2567296
2.3670945 -1.187306 1.2560526
2.3538685 -1.1878227 1.2554598
2.340862 -1.1883658 1.2548769
2.3328481 -1.1910673 1.2545176
2.3094451 -1.1868168 1.2534689
2.2987349 -1.1881732 1.2529888
2.2781982 -1.1850078 1.2520685
2.264214 -1.1847268 1.2514418
2.2496638 -1.1841102 1.2507896
2.2382779 -1.1848789 1.2502793
2.2261214 -1.1852281 1.2497345
2.2133183 -1.1852095 1.2491608
2.1992853 -1.1845438 1.2485318
2.1899557 -1.186028 1.2481136
2.1792278 -1.1867968 1.2476327
2.1719689 -1.1891677 1.2473073
2.147356 -1.1831502 1.2462045
2.1324587 -1.1817011 1.2455368
2.1081405 -1.175589 1.2444471
2.0938966 -1.1742746 1.2438087
2.0861003 -1.1760548 1.2434593
2.0819681 -1.1796052 1.243274
2.0723839 -1.1804228 1.2428443
2.0609188 -1.1802486 1.2423306
2.0521395 -1.1813629 1.241937
2.0406768 -1.1810739 1.2414234
2.0230415 -1.1775883 1.240633
2.0113652 -1.1770509 1.2401097
1.9994793 -1.1763433 1.2395771
1.9879682 -1.1757654 1.2390611
1.9722573 -1.1729473 1.2383571
1.964114 -1.1739904 1.237992
1.9574809 -1.175781 1.2376947
1.9520262 -1.1781567 1.2374502
1.9417518 -1.1779519 1.2369897
1.9257298 -1.1746336 1.2362717
1.9084752 -1.1705701 1.2354985
1.8960814 -1.1690267 1.2349432
1.8899704 -1.1708101 1.2346692
1.886296 -1.1738834 1.2345045
1.8769269 -1.1738304 1.2340845
1.8725473 -1.1764624 1.2338881
1.8594674 -1.1742784 1.233302
1.8511389 -1.1746542 1.2329288
1.8429296 -1.1750516 1.2325608
1.8370892 -1.176729 1.232299
1.8239954 -1.1743015 1.2317122
1.8094394 -1.170979 1.23106
1.7939854 -1.1670691 1.2303674
1.7870765 -1.167944 1.2300577
1.7792574 -1.1682607 1.2297074
1.7684395 -1.1668112 1.2292225
1.7635753 -1.1687429 1.2290045
1.7586561 -1.1706166 1.228784
1.7552301 -1.1733344 1.2286303
1.7522436 -1.1762913 1.2284963
1.7465395 -1.1776333 1.2282406
1.7333088 -1.1744958 1.2276478
1.7184085 -1.1702961 1.2269801
1.7085149 -1.1690027 1.2265368
1.699888 -1.168415 1.22615
1.6906464 -1.1674111 1.2257359
1.6864638 -1.1694156 1.2255484
1.6767796 -1.1680573 1.2251145
1.6721104 -1.1697055 1.2249051
1.6634495 -1.1688837 1.224517
1.6599069 -1.171164 1.2243581
1.6520898 -1.1707844 1.2240077
1.643874 -1.1701155 1.2236396
1.6297033 -1.1656908 1.2230046
1.6238086 -1.1663705 1.2227404
1.6194816 -1.168004 1.2225465
1.6150738 -1.1695634 1.2223488
1.6079155 -1.1693553 1.222028
1.6058697 -1.1723635 1.2219362
1.6038036 -1.1753479 1.2218435
1.6029145 -1.1790768 1.2218035
1.5997128 -1.1813101 1.2216599
1.5963721 -1.183436 1.2215102
1.5931714 -1.1856352 1.2213666
1.5912167 -1.1886305 1.2212789
1.5850247 -1.188838 1.2210014
1.5756311 -1.1869055 1.2205805
1.5645269 -1.1837921 1.2200829
1.5603648 -1.1852251 1.2198963
1.5571864 -1.1872911 1.2197537
1.5541649 -1.1894447 1.2196183
1.5510595 -1.1915258 1.2194791
8.1354799 2.1145763 1.4933302
8.0988512 2.0826266 1.4917837
8.0988684 2.0608771 1.4917836
8.0445309 2.0244353 1.4894897
8.044548 2.0028319 1.4894897
8.0445652 1.9812285 1.4894897
8.0266256 1.9549164 1.488732
8.0445995 1.9380218 1.4894897
8.0446167 1.9164184 1.4894897
8.0266771 1.890251 1.488732
8.0088177 1.8641998 1.4879776
7.9733191 1.833856 1.4864788
7.9733362 1.8124442 1.4864788
7.9910707 1.7953458 1.4872265
7.9733701 1.7696207 1.4864788
7.9911051 1.7524271 1.4872265
8.0000114 1.7330601 1.4876015
8.0447712 1.7219884 1.4894897
8.1174278 1.7170928 1.4925553
8.1542587 1.703663 1.4941087
8.182107 1.6880175 1.495283
8.1635494 1.6619227 1.4944993
8.1266699 1.6319102 1.4929422
8.1083632 1.6061186 1.4921689
8.1293287 1.5888255 1.493053
8.2008533 1.5820984 1.4960706
8.2573643 1.5718564 1.4984545
8.3532867 1.5694233 1.5025016
8.4147358 1.5594718 1.5050939
8.5215769 1.5582899 1.5096016
8.5592632 1.5428566 1.5111912
8.4976397 1.5078466 1.5085901
8.5351143 1.4922345 1.5101706
8.5690289 1.4757462 1.5116011
8.6549788 1.4688082 1.5152273
8.6758776 1.4494163 1.5161084
8.6342354 1.4185507 1.5143503
8.5579348 1.3817058 1.5111297
8.461586 1.3417363 1.5070635
8.4022951 1.3087178 1.5045605
8.3245134 1.2728577 1.5012776
9.8087769 0.28857067 1.5638689
9.8241081 0.26287767 1.5645149
9.8548927 0.23771036 1.5658129
9.8927784 0.21263817 1.5674106
9.9040413 0.18645826 1.5678849
9.95366 0.16141799 1.5699778
9.9490938 0.13456154 1.5697839
9.92558 0.10723871 1.568791
9.9511023 0.081181437 1.5698671
9.9657545 0.054763898 1.5704843
10.006516 0.028734177 1.5722033
10.029659 0.0022182316 1.5731785
10.059105 -0.024343118 1.5744205
9.9590807 -0.052332178 1.5701991
9.9437618 -0.079180732 1.5695521
9.9670095 -0.10577579 1.5705318
10.029233 -0.13242728 1.5731562
10.18066 -0.15949596 1.5795447
10.123373 -0.18662263 1.5771265
10.041031 -0.21328366 1.5736512
10.070775 -0.24050976 1.5749054
10.131585 -0.26825809 1.5774702
10.273829 -0.29750198 1.5834707
10.375889 -0.32682475 1.5877761
10.580857 -0.35872543 1.596423
10.558693 -0.38663626 1.595487
10.68871 -0.41824716 1.6009716
10.732018 -0.44814712 1.6027977
11.147123 -0.63924211 1.6203058
11.193399 -0.67132413 1.622257
11.06714 -0.6951555 1.6169291
10.965939 -0.71961045 1.6126585
10.833842 -0.74183416 1.6070842
10.229376 -0.73627555 1.5815805
10.066754 -0.75398088 1.5747182
10.148332 -0.78611994 1.5781596
10.152447 -0.81363332 1.5783321
10.218392 -0.84537637 1.5811135
10.156585 -0.86843657 1.5785048
9.8695135 -0.87462592 1.5663922
9.7553263 -0.89243126 1.5615742
6.7825651 -0.95751095 1.4361445
6.7112303 -0.96703362 1.4331343
6.3727016 -0.94292736 1.4188519
6.2366171 -0.94273627 1.4131101
6.1523104 -0.94853497 1.4095529
6.1122499 -0.95974255 1.4078622
6.1226664 -0.97755778 1.4083011
6.1593733 -0.99905288 1.4098492
6.1911907 -1.0200578 1.4111909
6.2233377 -1.0412809 1.4125466
6.2449603 -1.0611407 1.4134581
6.2449737 -1.0779058 1.4134581
6.2422776 -1.0942611 1.4133439
4.7948422 -1.0168821 1.3522758
4.7877617 -1.0284529 1.3519769
4.5191598 -1.0519487 1.3406432
4.493578 -1.0589038 1.3395635
4.4520626 -1.0624561 1.3378117
4.4403481 -1.0719733 1.3373172
3.7965734 -1.0300114 1.3101563
3.8378565 -1.0498809 1.3118975
3.8421595 -1.0612017 1.3120787
3.8433399 -1.0717968 1.3121282
3.8188682 -1.0761768 1.3110955
3.790993 -1.0795907 1.3099192
3.7708483 -1.0847714 1.3090692
3.7590356 -1.0919316 1.3085704
3.7646637 -1.1034455 1.3088074
3.8121645 -1.1257069 1.3108109
3.8484881 -1.1453323 1.3123429
3.8622692 -1.1592618 1.3129238
3.8599095 -1.1690044 1.312824
3.8544037 -1.1778952 1.3125913
2.5124602 -1.1706128 1.255972
2.517153 -1.179273 1.2561697
2.5186267 -1.1866336 1.2562317
2.5167446 -1.1926116 1.256152
2.4887297 -1.1876833 1.2549702
2.4688115 -1.1860026 1.2541299
2.4333551 -1.1776526 1.252634
2.4239922 -1.1802024 1.252239
2.3999362 -1.1764176 1.2512242
2.3907528 -1.1789045 1.2508366
2.3819394 -1.1815026 1.2504647
2.3740861 -1.1844712 1.2501333
2.3631761 -1.1860578 1.2496728
2.3523655 -1.1876298 1.2492167
2.3398044 -1.1883667 1.2486867
2.3274844 -1.1891439 1.2481668
2.2997897 -1.1829495 1.2469985
2.2851877 -1.1825221 1.2463825
2.2752492 -1.184136 1.2459631
2.2664499 -1.1862174 1.2455918
2.2549894 -1.1870276 1.2451081
2.2435443 -1.1877835 1.2446253
2.2310288 -1.1879799 1.2440972
2.2176754 -1.1877171 1.2435338
2.1980679 -1.1844393 1.2427065
2.1912518 -1.1871104 1.242419
2.184036 -1.1895546 1.2421143
2.1761148 -1.1916226 1.24178
2.1584034 -1.1889354 1.241033
2.1382513 -1.184972 1.2401829
2.113554 -1.1786879 1.239141
2.100281 -1.1778625 1.2385809
2.0936511 -1.1802349 1.2383012
2.0894873 -1.1837915 1.2381253
2.0775988 -1.1834834 1.2376238
2.0650549 -1.1827834 1.2370946
2.0559006 -1.1837208 1.2367083
2.0463285 -1.1843976 1.2363044
2.0234451 -1.1782585 1.2353392
2.0113127 -1.177489 1.2348273
1.9991841 -1.1766564 1.2343155
1.9832368 -1.1737872 1.2336428
1.9708264 -1.1726679 1.2331192
1.9637624 -1.1742704 1.2328211
1.9587269 -1.1768987 1.2326086
1.9553858 -1.1803925 1.2324674
1.9462738 -1.180812 1.232083
1.9266266 -1.1755745 1.2312541
1.9081911 -1.17088 1.2304765
1.8952249 -1.1690274 1.2299294
1.8891166 -1.1708108 1.2296717
1.885444 -1.1738842 1.2295166
1.8829578 -1.1775851 1.2294116
1.8754445 -1.1785158 1.2290946
1.8558885 -1.1727697 1.2282697
1.8496685 -1.1743035 1.2280072
1.84102 -1.1744529 1.2276423
1.8354565 -1.1762807 1.2274075
1.8253294 -1.1755146 1.2269802
1.8107023 -1.1721538 1.2263632
1.7943672 -1.1677459 1.2256742
1.7867763 -1.1682334 1.2253538
1.7803392 -1.1693408 1.2250822
1.7740316 -1.1704881 1.2248161
1.7687203 -1.1721773 1.224592
1.7587209 -1.1711161 1.22417
1.7524842 -1.1721958 1.2239069
1.7469878 -1.1736763 1.2236749
1.7413152 -1.1750231 1.2234355
1.7318904 -1.1741207 1.223038
1.7182572 -1.1706679 1.2224629
1.7084492 -1.1694245 1.222049
1.6969833 -1.1671346 1.2215654
1.6859241 -1.1650282 1.2210988
1.6817628 -1.167034 1.2209232
1.6757622 -1.1679 1.22067
1.67265 -1.1704961 1.2205385
1.6648961 -1.1702312 1.2202114
1.6561027 -1.1692848 1.2198404
1.6478868 -1.168648 1.2194937
1.6426315 -1.1698055 1.219272
1.6280197 -1.1651007 1.2186556
1.6213515 -1.1652918 1.2183743
1.615687 -1.1660784 1.2181352
1.611762 -1.167933 1.2179697
1.6079074 -1.1698112 1.2178069
1.6071928 -1.1736689 1.2177765
1.6052245 -1.1767206 1.2176936
1.6035163 -1.1799289 1.2176213
1.5989903 -1.1813105 1.2174304
1.5968649 -1.1842228 1.2173405
1.5945686 -1.1870126 1.2172436
1.5926816 -1.1900569 1.2171638
1.5832088 -1.1881173 1.2167642
1.5723416 -1.1852088 1.2163057
1.5616482 -1.182357 1.2158548
1.5602398 -1.1856104 1.2157952
1.5569642 -1.1876121 1.2156569
1.5541338 -1.1898942 1.2155374
1.5494055 -1.1908858 1.2153379
1.5369924 -1.1866691 1.2148143
1.5244083 -1.1822698 1.2142835
8.095171 2.104373 1.4703448
8.0709524 2.0759389 1.4693859
8.0952053 2.0608742 1.4703448
8.0770311 2.0342052 1.469625
8.0770493 2.0125046 1.469625
8.0589561 1.9860045 1.4689083
8.0127754 1.9522322 1.4670801
8.0409613 1.9380189 1.4681948
8.0512705 1.9190606 1.4686023
8.0590248 1.8993973 1.4689083
8.059042 1.8777453 1.4689083
8.0230818 1.8471378 1.4674846
8.0230989 1.8255826 1.4674846
8.0231161 1.8040274 1.4674846
7.9874744 1.7738836 1.4660735
7.9874916 1.7524242 1.4660735
8.0052986 1.7351542 1.4667776
8.0772734 1.7303989 1.469625
8.1690779 1.72982 1.4732571
8.2251768 1.7206271 1.4754763
8.263011 1.7070284 1.4769728
8.2158117 1.6743443 1.4751042
8.1864252 1.6458217 1.4739407
8.1944399 1.6255614 1.4742573
8.1951256 1.6036891 1.4742837
8.2678509 1.5970359 1.4771608
8.3060799 1.5827953 1.4786726
8.3982801 1.5794637 1.4823203
8.4903994 1.5756204 1.4859649
8.6405745 1.5829256 1.4919066
8.6793404 1.5673792 1.4934397
8.5719261 1.5230929 1.4891887
8.4966841 1.4855769 1.4862107
8.5043612 1.464204 1.4865137
8.5279169 1.4457616 1.4874452
8.568594 1.4303498 1.4890538
8.5482349 1.4036268 1.4882476
8.4934292 1.370845 1.4860781
8.4379063 1.3382316 1.4838806
8.4115963 1.3109905 1.4828387
8.3551331 1.2787343 1.4806038
9.7160969 0.18021923 1.5344137
9.7777786 0.15605006 1.5368533
9.8492365 0.13182932 1.5396798
9.8840733 0.10627532 1.5410573
9.9466028 0.08117786 1.5435305
9.9152718 0.053815231 1.5422899
9.9861164 0.028446853 1.545092
10.13821 0.0039316416 1.5511087
10.118665 -0.023545578 1.5503346
10.094333 -0.050964616 1.5493709
9.9905624 -0.078818828 1.5452645
9.9075918 -0.1060231 1.541981
9.9888868 -0.13249364 1.5451965
10.272985 -0.15959013 1.5564358
10.330642 -0.18739308 1.5587158
10.206643 -0.21436021 1.5538093
10.351934 -0.24308246 1.5595567
10.340612 -0.27075621 1.5591079
10.52472 -0.30117619 1.5663906
10.582722 -0.33043495 1.5686846
10.717958 -0.3615295 1.574034
10.752326 -0.39108875 1.575393
10.803123 -0.42124501 1.5774015
10.791565 -0.44994086 1.5769435
11.079133 -0.636482 1.5883147
11.101964 -0.66730344 1.5892172
10.983281 -0.69127333 1.5845206
10.872586 -0.71502078 1.5801405
10.785628 -0.73947072 1.5766993
10.416606 -0.74728012 1.5620993
10.234059 -0.76430023 1.5548763
10.205446 -0.78999293 1.5537436
10.180696 -0.81578469 1.5527636
10.213772 -0.84537995 1.5540713
10.18486 -0.87076628 1.5529268
6.7455802 -0.95347321 1.416854
6.693923 -0.96529758 1.4148097
6.083642 -0.95631945 1.3906653
6.0888062 -0.97335553 1.390869
6.114707 -0.99327922 1.3918931
6.1581078 -1.0158024 1.3936094
6.2349076 -1.0433438 1.396647
6.2732549 -1.065685 1.3981634
6.2858019 -1.0843968 1.3986592
6.2858152 -1.1012791 1.3986592
4.8588696 -1.0158092 1.3422068
4.8069134 -1.0194592 1.3401512
4.7973032 -1.0306034 1.3397707
4.7750149 -1.0393345 1.3388886
4.7560763 -1.0485789 1.3381391
4.4945312 -1.0474405 1.3277913
4.476634 -1.0558879 1.3270831
4.4390621 -1.0602047 1.3255965
4.4317765 -1.0706112 1.3253078
4.3849645 -1.0962106 1.3234551
4.3778553 -1.106432 1.3231734
3.82252 -1.0364277 1.3012046
3.8415861 -1.0511642 1.3019586
3.8328199 -1.0593992 1.3016114
3.822351 -1.0671787 1.3011969
3.8010018 -1.0722619 1.3003521
3.780174 -1.0773584 1.2995279
3.7671692 -1.0842831 1.2990133
3.7632346 -1.0934117 1.2988572
3.7660582 -1.1042315 1.2989686
3.8017125 -1.123473 1.3003786
3.8432245 -1.1444218 1.3020203
3.8634861 -1.1600379 1.3028214
3.8747945 -1.173398 1.3032684
3.8748026 -1.1838039 1.3032684
2.5095723 -1.1699016 1.2492554
2.5124993 -1.1778357 1.2493711
2.5130901 -1.1848234 1.2493942
2.5083382 -1.1895998 1.2492061
2.4733477 -1.1817369 1.2478219
2.4551809 -1.1807493 1.2471032
2.4270375 -1.175449 1.2459899
2.4173133 -1.177829 1.2456051
2.4000714 -1.1769404 1.244923
2.394047 -1.180789 1.2446846
2.3828351 -1.1823578 1.244241
2.3757005 -1.1856438 1.2439585
2.3656039 -1.187592 1.243559
2.3532803 -1.1885035 1.2430714
2.3346982 -1.18657 1.2423363
2.3187184 -1.1856992 1.2417041
2.2933056 -1.1805037 1.2406988
2.280637 -1.1809329 1.2401977
2.2735019 -1.18381 1.2399153
2.2689989 -1.1878526 1.2397369
2.2592971 -1.1894792 1.2393531
2.2463992 -1.1895746 1.2388427
2.2315359 -1.1886861 1.2382548
2.2158275 -1.1873219 1.2376333
2.189939 -1.1810806 1.2366093
2.1882305 -1.1861496 1.2365415
2.1857021 -1.1908189 1.2364414
2.1800287 -1.1939687 1.2362168
2.1578593 -1.189144 1.2353399
2.137285 -1.1849729 1.234526
2.116951 -1.1808079 1.2337216
2.1102924 -1.1832299 1.233458
2.103107 -1.1853565 1.2331737
2.1007423 -1.1898307 1.23308
2.0902812 -1.190263 1.2326661
2.071254 -1.186353 1.2319136
2.0591736 -1.1858352 1.2314355
2.0496776 -1.1865599 1.2310599
1.9798461 -1.1724997 1.2282975
1.9693193 -1.1723486 1.2278811
1.962773 -1.1742179 1.227622
1.9574864 -1.176713 1.2274128
1.9544516 -1.1803665 1.2272927
1.942992 -1.1795399 1.2268393
1.9238331 -1.1745514 1.2260814
1.9073287 -1.1708807 1.2254286
1.8953667 -1.169565 1.2249553
1.8882629 -1.1708115 1.2246742
1.8840277 -1.1735783 1.2245066
1.873477 -1.172874 1.2240891
1.8719884 -1.1770853 1.2240301
1.857125 -1.1739146 1.2234422
1.8488326 -1.1743042 1.2231141
1.8398517 -1.1742663 1.2227588
1.8306694 -1.1740674 1.2223955
1.8251216 -1.1758621 1.222176
1.8109255 -1.1727428 1.2216144
1.7959446 -1.1691018 1.2210219
1.7885062 -1.1696807 1.2207276
1.7831897 -1.1714351 1.2205172
1.784078 -1.1767319 1.2205521
1.7782494 -1.1781496 1.2203214
1.7607948 -1.172783 1.2196311
1.7525457 -1.1726946 1.2193047
1.7449276 -1.1729318 1.2190033
1.7384253 -1.1737852 1.2187461
1.7277815 -1.1721536 1.218325
1.7156582 -1.1695856 1.2178454
1.7077874 -1.1694911 1.2175341
1.6950669 -1.1664462 1.2170308
1.6882075 -1.1668632 1.2167594
1.6846613 -1.1692481 1.2166191
1.6798288 -1.1708322 1.2164278
1.6751013 -1.1724542 1.2162408
1.6694403 -1.173479 1.2160168
1.6581012 -1.1709768 1.2155682
1.6491269 -1.1698762 1.2152132
1.6412649 -1.1694183 1.2149022
1.6291265 -1.1662507 1.214422
1.622185 -1.1662736 1.2141473
1.6171352 -1.1674494 1.2139475
1.6139252 -1.1697607 1.2138205
1.6090981 -1.1710286 1.2136295
1.6064664 -1.1736693 1.2135253
1.6015819 -1.1748545 1.2133319
1.5986193 -1.1772484 1.2132146
1.5943711 -1.1787969 1.2130466
1.5921565 -1.1816401 1.2129588
1.5883933 -1.1834641 1.2128099
1.5875455 -1.1871723 1.2127763
1.5774888 -1.184835 1.2123785
1.5646459 -1.1806083 1.2118704
1.559396 -1.1813346 1.2116628
1.5599856 -1.1859105 1.2116859
1.557512 -1.1884471 1.211588
1.5535272 -1.1899588 1.2114303
1.5466758 -1.1895223 1.2111592
1.5374655 -1.1874576 1.2107949
1.5264496 -1.1841201 1.2103592
1.5204716 -1.1841497 1.2101227
1.5162752 -1.185364 1.2099566
8.0915089 2.1043699 1.4489062
8.0673008 2.0759358 1.4480112
8.1098089 2.0658617 1.4495808
8.1098261 2.0440633 1.4495808
8.1098433 2.022265 1.4495808
8.0915947 1.9956232 1.4489062
8.0270452 1.9569262 1.4465209
8.037324 1.9380161 1.4469
8.0476284 1.9190577 1.44728
8.0553789 1.8993944 1.4475657
8.0553961 1.8777424 1.4475657
8.0194521 1.8471349 1.4462374
8.0194693 1.8255798 1.4462374
8.0194864 1.8040246 1.4462374
7.9838605 1.7738807 1.4449207
8.0016594 1.7566584 1.4455776
8.0374784 1.7435859 1.4469
8.1468496 1.7474517 1.4509395
8.2592373 1.7514241 1.4550904
8.3166113 1.7422749 1.4572091
8.3553104 1.7286187 1.458638
8.2878695 1.6911751 1.456146
8.2769775 1.6665044 1.455743
8.2947388 1.6481042 1.4563985
8.2858744 1.6239082 1.4560704
8.3215332 1.609172 1.457387
8.3215513 1.5868056 1.457387
8.3651638 1.5734208 1.4589971
8.4409866 1.5663508 1.4617974
8.6505289 1.585704 1.4695369
8.6784067 1.5679687 1.470566
8.5476637 1.5191094 1.465736
8.4189224 1.4713386 1.4609797
8.3913193 1.4434658 1.4599595
8.3750381 1.4178605 1.4593574
8.4213276 1.4038886 1.4610665
8.4667044 1.3895023 1.4627419
8.4439821 1.3626723 1.4619019
8.4143372 1.3347431 1.4608063
8.3946962 1.3087118 1.4600801
8.4012575 1.2872688 1.4603219
9.7644835 0.18201038 1.5106367
9.8268108 0.15772045 1.5129379
9.9029188 0.13349009 1.5157481
9.9950209 0.1092656 1.5191489
10.089659 0.084605247 1.5226434
10.150757 0.058746561 1.5248992
10.179535 0.031981811 1.5259612
10.296227 0.006397903 1.5302702
10.313135 -0.021060646 1.5308939
10.254297 -0.049353391 1.52872
10.155373 -0.077615492 1.5250659
10.061561 -0.1053231 1.5216
10.181039 -0.13215247 1.5260118
10.491035 -0.15980189 1.5374602
10.604579 -0.18840583 1.5416527
10.845407 -0.21842292 1.5505463
10.591229 -0.24528107 1.5411581
10.415827 -0.27169335 1.5346794
10.470914 -0.30047515 1.5367129
10.610657 -0.33099693 1.5418731
10.762001 -0.36249873 1.5474616
10.851785 -0.3934328 1.5507767
11.011973 -0.42661789 1.5566918
10.780519 -0.44977337 1.5481431
10.685965 -0.56200469 1.5446475
10.669671 -0.59004754 1.544045
10.939278 -0.63056225 1.554001
10.961546 -0.6609956 1.5548224
10.939324 -0.68935502 1.554001
10.824022 -0.71275556 1.5497419
10.74315 -0.73741865 1.5467544
10.553865 -0.75542808 1.539763
10.416228 -0.77552164 1.5346794
10.282135 -0.79509783 1.5297264
10.20913 -0.81794989 1.5270292
10.209152 -0.84538364 1.5270292
10.209174 -0.87281752 1.5270292
6.6923051 -0.94749081 1.3971403
6.6625428 -0.96184504 1.3960407
6.0843225 -0.95677662 1.3746856
6.077476 -0.97219753 1.3744323
6.098114 -0.99137354 1.375194
6.141798 -1.0139022 1.3768067
6.2756176 -1.0495859 1.381748
6.3144865 -1.0721229 1.3831829
6.3272057 -1.0909795 1.3836519
6.327219 -1.1079807 1.3836519
4.9008236 -1.023682 1.3309739
4.8479471 -1.02728 1.3290211
4.8273373 -1.0365192 1.3282597
4.7943821 -1.0433474 1.3270423
4.7707539 -1.0517614 1.3261695
4.5021458 -1.0493693 1.3162491
4.4746094 -1.0558895 1.315232
4.4425387 -1.0613314 1.3140473
4.4308124 -1.070829 1.3136139
4.3901014 -1.074162 1.3121103
4.3526402 -1.0779691 1.3107266
4.3687739 -1.093145 1.3113221
4.3664241 -1.1043677 1.311235
3.8425777 -1.0414835 1.2918898
3.8409433 -1.0514224 1.2918292
3.8235173 -1.0576038 1.2911854
3.8015711 -1.0626066 1.2903748
3.7832859 -1.06838 1.2896993
3.7694066 -1.0751367 1.2891865
3.7615247 -1.0833066 1.2888951
3.7615328 -1.093413 1.2888951
3.7576084 -1.1025226 1.2887499
3.7779293 -1.1178223 1.2895
3.8305686 -1.141597 1.2914433
3.8528678 -1.157719 1.2922665
3.8730421 -1.1733994 1.2930112
3.8730502 -1.1838053 1.2930112
2.5066881 -1.1691912 1.2425482
2.5078595 -1.1764023 1.2425914
2.5075731 -1.1830195 1.2425807
2.5002282 -1.1867083 1.2423093
2.4609456 -1.1770289 1.2408587
2.4446924 -1.1768113 1.2402585
2.42594 -1.1754498 1.2395658
2.4199381 -1.1794114 1.2393441
2.4062123 -1.1800348 1.2388372
2.4009562 -1.1842324 1.2386429
2.38854 -1.1852984 1.2381843
2.3730586 -1.1849608 1.2376126
2.359988 -1.1855979 1.2371298
2.3445454 -1.1851177 1.2365595
2.3241582 -1.1823581 1.2358067
2.3092685 -1.1819456 1.2352567
2.2881346 -1.1786461 1.2344763
2.2741463 -1.1784647 1.2339597
2.2681723 -1.1818538 1.233739
2.2641635 -1.1861103 1.2335908
2.1750112 -1.1745161 1.2302985
2.1779649 -1.1817559 1.2304074
2.1754591 -1.1864105 1.2303147
2.169275 -1.1892895 1.2300862
2.1517198 -1.1866567 1.2294379
2.1329386 -1.183336 1.2287444
2.1180718 -1.1818209 1.2281953
2.1106148 -1.1838559 1.2279198
2.1099114 -1.1891769 1.2278938
2.1082366 -1.1940131 1.2278317
2.1004977 -1.195821 1.227546
2.0750978 -1.1887467 1.226608
2.062629 -1.1880435 1.2261475
2.0534322 -1.1889288 1.2258079
1.9777068 -1.1718576 1.2230116
1.9333031 -1.1748701 1.2213717
1.9116663 -1.1685332 1.2205727
1.903102 -1.16908 1.2202563
1.8933693 -1.1689521 1.2198969
1.8884006 -1.1713483 1.2197133
1.88614 -1.1751901 1.2196298
1.8819126 -1.1779453 1.2194735
1.8779843 -1.1808418 1.2193284
1.8635021 -1.1778958 1.2187936
1.8537141 -1.1774739 1.2184321
1.8446819 -1.1774205 1.2180985
1.8345106 -1.176681 1.2177229
1.827852 -1.1778622 1.2174768
1.8127143 -1.1742169 1.216918
1.8008492 -1.1723478 1.2164798
1.7941339 -1.1733527 1.2162318
1.7899902 -1.175795 1.2160786
1.7841566 -1.177242 1.2158632
1.7786659 -1.1788561 1.2156603
1.7608607 -1.1732846 1.2150029
1.7517533 -1.1726953 1.2146666
1.7441387 -1.1729324 1.2143854
1.7390803 -1.1746348 1.2141985
1.7336628 -1.1760975 1.2139983
1.7234559 -1.1746835 1.2136214
1.7159778 -1.1748444 1.2133452
1.7101381 -1.1759479 1.2131295
1.7036327 -1.1766191 1.2128892
1.697966 -1.1777629 1.2126799
1.6826055 -1.1729828 1.2121128
1.6770774 -1.1741244 1.2119086
1.6701807 -1.1743965 1.2116538
1.6537215 -1.1687411 1.2110462
1.6459378 -1.1683649 1.2107587
1.6382802 -1.1680255 1.2104759
1.6301128 -1.1673266 1.2101742
1.6242771 -1.1680452 1.2099587
1.6200458 -1.1697423 1.2098024
1.616823 -1.1720543 1.2096833
1.6088505 -1.1713338 1.2093889
1.604614 -1.1729521 1.2092323
1.5987223 -1.1734879 1.2090147
1.5941516 -1.1748415 1.2088459
1.5897745 -1.1762954 1.2086842
1.5872213 -1.1789081 1.2085898
1.5808438 -1.1790178 1.2083542
1.5790335 -1.1820784 1.2082872
1.5691355 -1.1798214 1.2079219
1.5568622 -1.1759458 1.2074686
1.5528563 -1.1774746 1.2073207
1.5556499 -1.1834991 1.2074237
1.5546203 -1.1869885 1.2073855
1.5516521 -1.1891741 1.2072759
1.543377 -1.1877751 1.2069702
1.5363691 -1.1871871 1.2067115
1.5264794 -1.1846085 1.2063463
1.5201514 -1.1844002 1.2061126
1.5158168 -1.1855198 1.2059524
8.0878458 2.104367 1.4274673
8.0636492 2.075933 1.4266367
8.1244774 2.0708721 1.4287229
8.1244946 2.0490243 1.4287229
8.1245117 2.0271766 1.4287229
8.1061897 2.0004635 1.4280938
8.0234118 1.9569234 1.4252533
8.0336857 1.9380132 1.4256052
8.0439854 1.9190549 1.4259579
8.051733 1.8993915 1.4262232
8.0517502 1.8777395 1.4262232
8.0158224 1.8471321 1.4249901
8.0158396 1.8255769 1.4249901
8.0158567 1.8040217 1.4249901
7.980247 1.7738779 1.4237678
7.9625702 1.7482003 1.4231608
7.9921217 1.7337499 1.424174
8.1554909 1.7503214 1.4297777
8.2609243 1.7526708 1.4333943
8.3128471 1.7422719 1.4351748
8.3321514 1.7242571 1.4358366
8.3032722 1.695429 1.4348452
8.3225327 1.6773263 1.4355052
8.3682642 1.664861 1.4370735
8.3564587 1.6398265 1.4366677
8.3177671 1.609169 1.4353398
8.3177843 1.5868026 1.4353398
8.3033781 1.5614632 1.4348452
8.397706 1.5583206 1.4380804
8.6814499 1.5926939 1.4478135
8.7125597 1.5755074 1.44888
8.6397171 1.5378454 1.4463806
8.5115108 1.4899086 1.4419818
8.4055176 1.4468814 1.4383453
8.3761282 1.4187717 1.4373364
8.4125862 1.4029756 1.4385865
8.4778557 1.3922248 1.4408249
8.4943466 1.3723806 1.4413899
8.4501076 1.3417271 1.4398719
8.4501257 1.3190055 1.4398719
8.4567776 1.2974191 1.4400994
8.6152277 1.3013699 1.4455341
8.688694 1.2903805 1.4480537
9.8673172 0.1856553 1.4884492
9.9309978 0.16112024 1.4906329
10.036738 0.13744739 1.494259
10.123243 0.1127069 1.4972252
10.154337 0.086212367 1.4982911
10.203812 0.059928939 1.4999872
10.174928 0.031978145 1.4989958
10.262164 0.0059473366 1.5019871
10.249635 -0.021800235 1.5015565
10.19976 -0.049847029 1.4998454
10.156519 -0.077578217 1.4983612
10.065059 -0.10529096 1.4952235
10.32852 -0.13188946 1.5042592
10.578944 -0.15989232 1.512848
10.808079 -0.18916444 1.5207061
10.837384 -0.21840717 1.5217106
10.60206 -0.24542552 1.5136385
10.336213 -0.2708216 1.5045195
10.325764 -0.29846013 1.5041603
11.008367 -0.42665645 1.5275695
10.818916 -0.4509812 1.5210708
10.690143 -0.47613832 1.5166533
10.62691 -0.50277859 1.5144839
10.476384 -0.52594626 1.5093203
10.447386 -0.55299228 1.5083249
10.437001 -0.58065021 1.5079681
10.611304 -0.61636925 1.5139453
10.623281 -0.64545476 1.5143554
10.630192 -0.67435455 1.5145917
10.627069 -0.70276964 1.5144839
10.754363 -0.73830187 1.5188488
10.585358 -0.7575134 1.5130515
10.44178 -0.77734375 1.5081266
10.302047 -0.79664338 1.5033331
10.204511 -0.81795359 1.4999872
10.204533 -0.84538734 1.4999872
6.6398182 -0.94159675 1.3777181
6.6398325 -0.95944643 1.3777181
6.2837505 -1.0511618 1.3655025
6.3264494 -1.0742903 1.3669664
6.3466897 -1.0943067 1.3676599
6.3541875 -1.1125017 1.3679166
4.9209738 -1.0276732 1.318761
4.8897262 -1.0352426 1.3176889
4.8577771 -1.042515 1.3165929
4.8030438 -1.0453683 1.3147156
4.77705 -1.0533619 1.3138238
4.7770605 -1.0662034 1.3138238
4.7339044 -1.0706497 1.3123435
4.5977364 -1.0565251 1.3076735
4.5227709 -1.0539002 1.3051022
4.4927216 -1.0599697 1.3040714
4.4737082 -1.0681425 1.3034191
4.4507556 -1.0753942 1.3026316
4.4072561 -1.0781947 1.3011396
4.3713422 -1.0823797 1.2999077
4.3703394 -1.0939115 1.2998729
4.3668065 -1.1048849 1.2997515
3.8600979 -1.0459551 1.2823734
3.8417602 -1.0520236 1.2817442
3.8422246 -1.0624588 1.28176
3.8132958 -1.0658369 1.2807674
3.7849891 -1.0692108 1.2797966
3.773638 -1.0765957 1.279407
3.7716649 -1.0862476 1.2793391
3.7694118 -1.0958185 1.2792616
3.7677255 -1.105521 1.2792034
3.7815199 -1.119182 1.2796762
3.8329854 -1.1426733 1.2814407
3.8538792 -1.1584413 1.2821571
3.8712897 -1.1734009 1.2827537
3.8149199 -1.1687512 1.2808204
2.5020645 -1.1677725 1.2357907
2.5020695 -1.1744971 1.2357907
2.5012043 -1.1808631 1.2357609
2.4911761 -1.1834234 1.2354169
2.4486563 -1.1723636 1.2339587
2.4354157 -1.1733785 1.2335045
2.428257 -1.1768947 1.233259
2.4252181 -1.1821254 1.2331545
2.4105537 -1.1823611 1.2326516
2.4045923 -1.1862683 1.232447
2.389066 -1.1859959 1.2319145
2.370532 -1.1843277 1.2312789
2.352742 -1.1828864 1.2306687
2.3418484 -1.1843958 1.2302949
2.3181822 -1.1801705 1.2294834
2.2974007 -1.1771078 1.2287706
2.2771604 -1.1741767 1.2280765
2.2678568 -1.1760852 1.2277575
2.2645607 -1.1806779 1.2276442
2.2632976 -1.1861835 1.2276008
2.1662879 -1.1708696 1.2242738
2.1660433 -1.1765736 1.2242653
2.1653023 -1.1820395 1.2242397
2.1601005 -1.1853632 1.2240611
2.1430497 -1.1829479 1.2234764
2.1256676 -1.1802802 1.2228804
2.1144435 -1.1805207 1.2224953
2.1105449 -1.1842904 1.2223616
2.1114354 -1.1903991 1.2223918
2.1122379 -1.1964688 1.2224193
2.1037624 -1.1979214 1.2221285
2.0773568 -1.1903489 1.221223
2.0650814 -1.1897488 1.2208021
2.0572035 -1.1913089 1.2205318
1.9699999 -1.1683369 1.2175413
1.9218543 -1.1692626 1.2158899
1.9067457 -1.1663718 1.2153718
1.8998945 -1.1678234 1.2151369
1.8922282 -1.1687994 1.2148739
1.8875463 -1.171349 1.2147132
1.8852868 -1.1751907 1.2146356
1.8800771 -1.1774081 1.2144568
1.8774149 -1.1809963 1.2143655
1.8685628 -1.1811544 1.2140619
1.8556094 -1.1789906 1.2136176
1.8473682 -1.179383 1.2133349
1.8364921 -1.1782557 1.2129619
1.8302157 -1.1796578 1.2127466
1.8143342 -1.1755965 1.212202
1.8036485 -1.174401 1.2118355
1.7965244 -1.1751806 1.2115911
1.7921122 -1.1774765 1.2114397
1.7860085 -1.1787744 1.2112304
1.7791905 -1.1796261 1.2109965
1.7635193 -1.175294 1.2104591
1.7535243 -1.1741929 1.2101163
1.7444378 -1.1735715 1.2098047
1.7391348 -1.1751313 1.2096227
1.7343123 -1.176947 1.2094573
1.7293084 -1.178629 1.2092856
1.7231915 -1.179619 1.2090757
1.7133527 -1.1783421 1.2087383
1.70689 -1.1790479 1.2085166
1.6970643 -1.1776825 1.2081797
1.6877688 -1.1765867 1.2078608
1.6822606 -1.1777549 1.2076719
1.6730895 -1.1766456 1.2073574
1.6568931 -1.1711574 1.206802
1.6477488 -1.1699474 1.2064884
1.6406901 -1.1699848 1.2062463
1.6356944 -1.1712724 1.206075
1.629854 -1.1720033 1.2058746
1.6244895 -1.1730027 1.2056906
1.6193687 -1.1741273 1.2055149
1.6097693 -1.17238 1.2051857
1.6038883 -1.1729525 1.2049839
1.5958701 -1.172125 1.2047089
1.5901067 -1.1727042 1.2045113
1.5848507 -1.1735804 1.2043309
1.5816157 -1.1757388 1.2042199
1.5761685 -1.1764394 1.2040331
1.5732148 -1.1787411 1.2039318
1.5640237 -1.1769314 1.2036165
1.5530196 -1.1738772 1.2032392
1.5497636 -1.1758928 1.2031274
1.552595 -1.1819369 1.2032244
1.5508993 -1.184975 1.2031661
1.5479441 -1.1871603 1.2030647
1.5409307 -1.1865996 1.2028242
1.5347997 -1.1865971 1.2026139
1.5264369 -1.1850485 1.2023271
1.5190049 -1.1840885 1.2020723
1.513203 -1.1842026 1.2018732
8.1207628 2.1145647 1.4071872
8.0842009 2.0826149 1.4060287
8.1207981 2.0708692 1.4071872
8.1024847 2.0440576 1.4066066
8.1025019 2.0222592 1.4066066
8.0842705 1.9956175 1.4060286
8.0197783 1.9569205 1.4039857
8.0121231 1.9333497 1.4037427
8.0223732 1.9144279 1.4040667
8.0300817 1.8948036 1.4043102
8.0300999 1.8732003 1.4043102
8.0121918 1.8471291 1.4037427
8.0122089 1.8255739 1.4037427
8.0122261 1.8040187 1.4037427
8.0147991 1.7830801 1.4038236
8.0481901 1.7694776 1.4048805
8.069315 1.7528031 1.405549
8.207716 1.7633542 1.4099315
8.2571831 1.7526678 1.4114977
8.270792 1.7335488 1.4119277
8.2612925 1.7091565 1.4116265
8.2762756 1.6902593 1.4121003
8.3737469 1.6894013 1.4151868
8.4502707 1.6834735 1.4176097
8.4410629 1.6587635 1.4173173
8.3721743 1.6214751 1.4151351
8.3333197 1.5908316 1.4139042
8.2804728 1.5575123 1.41223
8.374321 1.5543323 1.4152014
8.6565924 1.5884882 1.42414
8.6605892 1.5659887 1.4242659
8.6068153 1.5321765 1.4225624
8.559824 1.4999611 1.4210738
8.4668245 1.459254 1.4181279
8.4861441 1.4400936 1.4187393
8.4832973 1.4167353 1.4186485
8.5395336 1.4041455 1.420429
8.5613747 1.3850857 1.4211199
8.5063267 1.3523288 1.419376
8.5468512 1.3364905 1.4206589
8.5740881 1.3181592 1.4215208
8.6727505 1.3117194 1.4246446
8.7222748 1.2965991 1.4262123
8.6707926 1.2647324 1.4245814
8.6291246 1.2347177 1.4232613
8.6291428 1.2115045 1.4232613
10.084422 0.27457124 1.4693166
10.144146 0.24979866 1.4712071
10.19906 0.22452822 1.4729453
9.9448128 0.18844107 1.4648939
9.9909592 0.1631369 1.4663545
10.102773 0.13946599 1.4698944
10.240293 0.11586115 1.4742479
10.24282 0.088374883 1.4743271
10.228251 0.060523346 1.4738653
10.228271 0.033011362 1.4738653
10.278494 0.0062625557 1.4754548
10.346221 -0.020537257 1.4775987
10.363309 -0.04819876 1.478139
10.199301 -0.077243887 1.4729453
10.1417 -0.10493377 1.4711206
10.357681 -0.13183384 1.4779586
10.663894 -0.15998012 1.4876536
10.806833 -0.18918157 1.4921789
10.797571 -0.21819064 1.4918849
10.610682 -0.24555022 1.4859666
10.287128 -0.27030602 1.4757212
10.212049 -0.29689538 1.4733434
10.870124 -0.42330986 1.4941767
10.727851 -0.44858679 1.4896713
10.477418 -0.46979696 1.4817413
10.43683 -0.49662924 1.4804555
10.299975 -0.51978695 1.4761215
10.306334 -0.54773515 1.4763223
10.313545 -0.57575268 1.4765499
10.361617 -0.60560548 1.4780713
10.34458 -0.63267875 1.4775311
10.305154 -0.65855539 1.4762822
10.518524 -0.69737518 1.4830372
7.6069264 -0.93456542 1.3908405
7.6069431 -0.9550246 1.3908405
6.6002126 -0.93723369 1.3589646
6.6002269 -0.9549849 1.3589646
6.3115749 -1.0555643 1.3498223
6.3459382 -1.0775597 1.3509098
6.373847 -1.0987792 1.3517929
6.381412 -1.1170658 1.3520321
4.9322591 -1.030086 1.3061492
4.896399 -1.0368537 1.3050137
4.865447 -1.0443307 1.3040335
4.8169708 -1.0483729 1.3024986
4.7876205 -1.0557727 1.301569
4.7748981 -1.066205 1.3011658
4.7317615 -1.0706514 1.2997999
4.5904326 -1.0554967 1.2953253
4.5305018 -1.0558569 1.2934277
4.499692 -1.0617958 1.292452
4.488452 -1.0715872 1.2920959
4.4542594 -1.0765436 1.2910131
4.3978958 -1.0766445 1.2892284
4.3691101 -1.0823272 1.2883168
4.3551149 -1.0910511 1.2878735
4.3516059 -1.1019934 1.287762
3.8694546 -1.069343 1.2724965
3.83764 -1.0721025 1.271489
3.8291259 -1.0803522 1.2712193
3.803895 -1.0844495 1.2704203
3.7699575 -1.0862489 1.2693455
3.7677057 -1.0958198 1.269274
3.7620745 -1.1045212 1.2690957
3.7731886 -1.1174859 1.2694471
3.6198976 -1.117111 1.2645935
2.492831 -1.1644768 1.2289057
2.4902432 -1.1701174 1.2288235
2.4888105 -1.1762205 1.228778
2.4768009 -1.1779261 1.2283977
2.4408944 -1.1695851 1.2272609
2.4303906 -1.1717304 1.2269284
2.3462996 -1.1805254 1.2242656
2.3111687 -1.1775196 1.2231532
2.2888343 -1.1737422 1.2224462
2.2746193 -1.1734978 1.2219961
2.2671032 -1.1762094 1.221758
2.1604445 -1.1685777 1.218381
2.1598551 -1.1741049 1.2183623
2.1570802 -1.1785868 1.2182742
2.1500747 -1.1810251 1.2180524
2.1345625 -1.1793237 1.2175612
2.1230307 -1.1794688 1.2171961
2.1133091 -1.1804348 1.2168883
2.1108298 -1.184899 1.2168096
2.111721 -1.1910114 1.2168378
2.1141226 -1.1978775 1.2169136
2.1091609 -1.201087 1.2167565
2.0784767 -1.1913817 1.2157851
2.0657296 -1.1905469 1.2153815
2.0573196 -1.1918398 1.2151152
1.9079077 -1.1674525 1.210385
1.9024835 -1.1696726 1.2102132
1.895507 -1.1710277 1.2099922
1.891803 -1.1741164 1.2098749
1.8893901 -1.1778878 1.2097983
1.8851442 -1.1806442 1.2096639
1.8824663 -1.184239 1.209579
1.8727255 -1.1839201 1.2092705
1.8560476 -1.1797003 1.2087426
1.8476177 -1.1799889 1.2084756
1.8365997 -1.1787822 1.2081268
1.8303195 -1.1801832 1.2079279
1.8160018 -1.1770046 1.2074747
1.809189 -1.1780137 1.2072589
1.8031809 -1.1794455 1.2070687
1.7975767 -1.1810768 1.2068912
1.784609 -1.1784343 1.2064806
1.7773798 -1.1790445 1.2062517
1.7650723 -1.1766622 1.205862
1.7549326 -1.1754804 1.205541
1.7473141 -1.1757239 1.2052999
1.7423533 -1.1774939 1.2051427
1.738562 -1.1799301 1.2050226
1.7343682 -1.1821064 1.2048898
1.7259982 -1.1817635 1.2046248
1.7153257 -1.1799932 1.2042868
1.7094982 -1.1810876 1.2041023
1.7035367 -1.1820698 1.2039136
1.6941664 -1.1809453 1.2036169
1.6872541 -1.1812727 1.203398
1.6732224 -1.1771926 1.2029538
1.6594955 -1.1732249 1.2025193
1.6536882 -1.1740879 1.2023354
1.6456721 -1.1735458 1.2020816
1.6408072 -1.174929 1.2019274
1.6312302 -1.1733301 1.2016243
1.6279595 -1.1756527 1.2015207
1.6229194 -1.1768382 1.2013609
1.6104836 -1.1732974 1.2009673
1.6027535 -1.1726923 1.2007227
1.5927229 -1.1705716 1.2004051
1.5838808 -1.1691616 1.2001251
1.5793574 -1.1704949 1.1999819
1.5753533 -1.1721405 1.1998551
1.5698488 -1.1727872 1.1996808
1.5645448 -1.1735353 1.1995128
1.5578918 -1.1733689 1.1993022
1.5460807 -1.1697645 1.1989282
1.5451974 -1.1733336 1.1989002
1.5459766 -1.1780037 1.1989248
1.5457187 -1.1819854 1.1989164
1.5429238 -1.1842651 1.198828
1.5374082 -1.1846988 1.1986532
1.5314889 -1.1848298 1.1984658
1.5253143 -1.184756 1.1982703
1.5183176 -1.1840889 1.1980488
1.5108221 -1.1830431 1.1978115
1.4967339 -1.1894959 1.1973653
8.1539803 2.1248553 1.3867226
8.1048775 2.0893364 1.3852966
8.1171188 2.0708663 1.3856514
8.0624142 2.0341938 1.3840628
8.0624313 2.0124931 1.3840628
8.0624485 1.9907929 1.3840628
8.0263929 1.9596108 1.3830154
8.0084934 1.9333469 1.3824953
8.0085106 1.9117919 1.3824953
8.0085278 1.8902367 1.3824953
8.0085449 1.8686816 1.3824953
8.0085621 1.8471262 1.3824953
8.0085793 1.8255711 1.3824953
8.0085964 1.8040159 1.3824953
8.0316639 1.7880226 1.3831644
8.1419067 1.792706 1.3863643
8.1825972 1.7803876 1.3875451
8.2988796 1.7854795 1.3909204
8.3107967 1.7658865 1.3912659
8.267045 1.7335458 1.3899951
8.21031 1.6985176 1.3883476
8.2589245 1.6872306 1.3897585
8.3811264 1.6918536 1.3933053
8.4096766 1.6754895 1.3941337
8.3984451 1.650444 1.3938071
8.2958231 1.6061126 1.3908275
8.2576561 1.5758044 1.389719
8.210433 1.5438335 1.3883476
8.3027325 1.5405256 1.3910265
8.5905209 1.5759979 1.3993804
8.6013269 1.5550157 1.3996935
8.5333509 1.5185708 1.3977199
8.6146393 1.5112766 1.4000789
8.5465021 1.4751314 1.3981004
8.6250305 1.4668469 1.4003795
8.6220894 1.4430866 1.4002936
8.6384163 1.422851 1.4007672
8.6399212 1.3998684 1.4008102
8.5633497 1.3630823 1.3985869
8.5838547 1.3435999 1.3991815
8.6251411 1.3275675 1.4003795
8.6683226 1.311632 1.4016325
8.7265701 1.2979642 1.4033228
8.723052 1.2739009 1.4032203
8.6948862 1.2458997 1.402402
8.6808805 1.2202851 1.4019951
8.6808996 1.1969222 1.4019951
9.5436707 0.27766693 1.4270157
9.9188728 0.26778701 1.4379057
10.006704 0.2445569 1.4404545
10.136846 0.22240859 1.4442314
10.065782 0.19270951 1.442168
10.151227 0.16830051 1.4446474
10.271627 0.14443371 1.4481417
10.398791 0.12009466 1.4518321
10.311729 0.090083629 1.4493043
10.272393 0.061524019 1.448162
10.361397 0.035473585 1.4507446
10.4317 0.0086598396 1.4527844
10.523497 -0.018263131 1.4554484
10.479616 -0.047013372 1.4541742
10.261314 -0.076772064 1.447837
10.236247 -0.10449672 1.447109
10.421713 -0.13171701 1.4524914
10.608048 -0.15993617 1.4578992
10.696151 -0.18880171 1.4604558
10.664387 -0.21738389 1.4595333
10.486338 -0.24447703 1.4543645
10.228737 -0.26968104 1.4468871
10.125816 -0.29572463 1.4438993
10.490121 -0.41387868 1.4544704
10.472649 -0.44161966 1.4539626
10.341889 -0.46580708 1.4501669
10.282645 -0.49166694 1.4484469
10.139477 -0.51419342 1.4442908
10.000244 -0.53610116 1.440249
9.965353 -0.56156898 1.4392358
10.024229 -0.59097373 1.440944
10.008276 -0.61720204 1.4404804
9.8776464 -0.6376825 1.4366881
7.6757584 -0.94202602 1.3727711
7.6178441 -0.95654619 1.3710899
6.6215677 -0.94014096 1.3421732
6.621582 -0.95795774 1.3421732
6.3111949 -1.0729017 1.3331616
6.3596706 -1.0971001 1.334568
6.333498 -1.1102417 1.3338081
4.9165187 -1.0276767 1.2926822
4.8764491 -1.0336423 1.2915189
4.8388901 -1.039854 1.2904286
4.7890906 -1.0435797 1.2889831
4.7663865 -1.0521657 1.2883239
4.7600756 -1.0637766 1.2881404
4.7225065 -1.0692687 1.2870498
4.5857487 -1.0549841 1.2830808
4.5382667 -1.0578222 1.2817025
4.5032973 -1.0629414 1.2806873
4.497664 -1.0738986 1.2805235
4.4633155 -1.0788496 1.2795267
4.3994961 -1.0774033 1.2776743
4.3777852 -1.0846032 1.2770439
4.358429 -1.0921954 1.276482
4.354661 -1.1030951 1.2763723
4.2535448 -1.0924062 1.2734377
4.1812553 -1.0876374 1.2713397
3.8970988 -1.0763317 1.2630922
3.883379 -1.0835167 1.2626938
3.8319323 -1.0814573 1.2612007
3.8021724 -1.0844508 1.2603368
3.7781668 -1.0887141 1.2596399
3.7719357 -1.0973121 1.2594588
3.7623415 -1.1050229 1.2591803
3.7694991 -1.1169792 1.2593876
3.5527697 -1.0996079 1.2530975
2.4654565 -1.1471617 1.221537
2.4796538 -1.1595722 1.2219489
2.4772351 -1.1652491 1.2218784
2.4756742 -1.1712673 1.221833
2.4648728 -1.17344 1.2215195
2.4370284 -1.1684324 1.2207114
2.4284294 -1.1713693 1.2204617
2.3379822 -1.1773384 1.2178364
2.3045855 -1.1750576 1.2168671
2.2833629 -1.1717584 1.2162511
2.274138 -1.1737458 1.2159834
2.2640915 -1.1753113 1.2156917
2.1765697 -1.1707933 1.2131515
2.1629357 -1.1702151 1.2127558
2.1610432 -1.1751333 1.2127007
2.1573989 -1.1792058 1.2125949
2.1498365 -1.1813787 1.2123753
2.1327507 -1.1789167 1.2118795
