# .PCD v0.7 - Point Cloud Data file format
VERSION 0.7
FIELDS x y z
SIZE 4 4 4
TYPE F F F
COUNT 1 1 1
WIDTH 1567
HEIGHT 1
VIEWPOINT 0 0 0 1 0 0 0
POINTS 1567
DATA ascii
2.8616471 -1.0986873 1.3827019
2.8428297 -1.1000262 1.381171
2.8092372 -1.0962878 1.3784389
2.7887468 -1.0968187 1.3767722
2.7677674 -1.0970731 1.3750658
2.7582185 -1.1011572 1.3742888
2.7404363 -1.1023294 1.3728423
2.7110908 -1.0993574 1.3704556
2.697731 -1.1018695 1.3693688
2.6829641 -1.10381 1.3681675
2.6741269 -1.1077957 1.3674486
2.6633179 -1.1110227 1.3665692
2.6429188 -1.110706 1.3649099
2.5969656 -1.1009237 1.3611728
2.5734098 -1.099157 1.3592569
2.5581398 -1.100343 1.3580147
2.5465837 -1.102837 1.3570746
2.5211823 -1.1000522 1.3550086
2.5087976 -1.1020719 1.3540012
2.4834518 -1.0990723 1.3519398
2.4519961 -1.0935861 1.3493814
2.4389501 -1.095066 1.3483202
2.4301894 -1.098148 1.3476075
2.4200716 -1.1006504 1.3467844
2.4097593 -1.103022 1.3459454
2.3881273 -1.1008315 1.3441861
2.3809559 -1.1043217 1.3436025
2.1798694 -1.0934366 1.327247
2.187396 -1.1025233 1.3278587
2.0623245 -1.0700437 1.3176875
2.0751412 -1.0812914 1.3187294
2.0743308 -1.0864556 1.3186631
2.071116 -1.0905235 1.3184013
2.0630319 -1.0923502 1.3177438
2.0486465 -1.0912385 1.3165736
2.0389862 -1.0922339 1.3157878
2.0327792 -1.0947826 1.3152828
2.027663 -1.0978081 1.3148664
2.0253999 -1.1021476 1.3146821
2.0231419 -1.1064774 1.3144982
2.0208888 -1.1107974 1.3143146
2.0156722 -1.1136886 1.3138902
2.0151639 -1.1188155 1.3138485
2.0233474 -1.1281415 1.3145134
2.0345535 -1.1389805 1.3154243
2.0418208 -1.147954 1.3160149
2.0442941 -1.1546104 1.3162156
2.0442984 -1.16006 1.3162156
5.4725027 -3.422565 1.5949154
5.4890981 -3.4471133 1.5962636
5.4974389 -3.4667699 1.5969409
5.4974508 -3.4814236 1.5969409
5.4808288 -3.4859529 1.5955886
5.4560771 -3.4854243 1.5935754
5.4397044 -3.4899073 1.5922432
5.4561005 -3.5145106 1.5935754
5.4670901 -3.5358527 1.5944679
5.2456408 -3.6362777 1.5764488
5.2781124 -3.6719191 1.5790877
5.3723407 -3.7491064 1.5867472
5.4097881 -3.788605 1.5897906
5.4687095 -3.8428037 1.5945797
5.4811311 -3.865793 1.5955886
5.4601965 -3.8661466 1.5938857
5.4048381 -3.8428683 1.5893843
5.3544502 -3.8227048 1.5852872
5.3185296 -3.8122339 1.582366
5.3297176 -3.8341355 1.5832748
5.2904463 -3.8210824 1.5800812
5.2255983 -3.790004 1.5748086
5.2055879 -3.7899323 1.5731812
5.2100902 -3.8069592 1.5735462
5.2559543 -3.8531523 1.5772738
5.3528461 -3.9356773 1.5851493
5.3904014 -3.9765966 1.5882015
5.3670287 -3.9743011 1.5863005
5.3025188 -3.9424589 1.5810554
5.260735 -3.9265878 1.5776577
5.2634749 -3.9425755 1.5778797
5.267859 -3.9597669 1.5782351
5.2777362 -3.9809687 1.5790371
5.2777476 -3.9950354 1.5790371
5.2586093 -3.9950991 1.5774803
5.2586203 -4.0091147 1.5774803
5.2472076 -4.0147166 1.5765517
5.1982851 -3.9925301 1.5725739
5.1686339 -3.9843798 1.5701625
5.1103244 -3.9547348 1.5654218
5.0888028 -3.9522662 1.5636712
5.3836689 2.8771257 1.5741296
5.3836803 2.8627555 1.5741296
5.3836918 2.8483856 1.5741296
5.3837032 2.8340154 1.5741296
5.3722939 2.8133459 1.57323
5.3563976 2.7902741 1.5719767
5.3730774 2.7850819 1.57329
5.3797464 2.7743595 1.5738144
5.3797579 2.76 1.5738144
5.3536124 2.7315617 1.571754
5.2819762 2.6788993 1.5661095
5.3178496 2.683912 1.5689347
5.3799939 2.7026632 1.5738294
5.405652 2.7018332 1.5758498
5.3987494 2.6837759 1.5753051
5.3361959 2.6366935 1.5703764
5.3735714 2.6418629 1.5733198
5.3735828 2.6275201 1.5733198
5.3999467 2.6267285 1.5753958
5.4242454 2.6247396 1.5773091
5.4806008 2.6389337 1.5817478
5.5940018 2.6817029 1.5906802
5.6279926 2.6838815 1.593357
5.6018615 2.655766 1.5912976
5.506865 2.593482 1.5838131
5.4222245 2.5368371 1.5771445
5.3985038 2.510668 1.5752749
5.4313178 2.5123384 1.577859
5.4739814 2.5186355 1.581219
5.4625802 2.4984915 1.5803199
5.4842777 2.4943681 1.5820282
5.481915 2.4785922 1.5818412
5.498589 2.4719057 1.5831537
5.5237851 2.4691715 1.5851376
5.5322433 2.4584107 1.585803
5.5620213 2.4576001 1.5881479
5.5964465 2.458797 1.5908587
5.6225491 2.4559524 1.5929141
5.6474266 2.4524045 1.5948728
7.5379057 3.1223054 1.7437817
7.1601229 2.8244915 1.7140142
7.0012703 2.7398083 1.7014999
6.912622 2.6847634 1.6945159
6.8875728 2.6561031 1.6925416
6.930306 2.6550112 1.6959065
7.1900101 2.7409298 1.7163625
7.316021 2.7720644 1.7262872
7.3842902 2.7796175 1.7316636
7.3742733 2.7559564 1.7308732
6.2841711 2.0747402 1.6449898
6.2892809 2.0597601 1.6453913
6.276567 2.0385377 1.6443889
6.2820287 2.0236723 1.6448181
6.3039308 2.0144229 1.6465422
6.3259859 2.0051081 1.6482784
6.3481956 1.9957284 1.6500267
6.3593664 1.9825281 1.6509054
6.3371053 1.9581467 1.649151
6.3149996 1.9339355 1.6474087
6.2930474 1.9098927 1.6456786
6.2821355 1.8895515 1.6448181
6.2821488 1.8727864 1.6448181
6.2821622 1.8560213 1.6448181
6.2821755 1.8392562 1.6448181
6.2821889 1.822491 1.6448181
6.2822022 1.8057259 1.6448181
7.0492854 1.8375475 1.7052245
7.1456361 1.8456405 1.7128121
7.2733173 1.8618857 1.7228674
7.4210725 1.882948 1.7345039
7.4570136 1.8728901 1.7373334
7.3417587 1.8220282 1.7282543
7.3182073 1.7961688 1.7263982
7.3252769 1.7784969 1.7269539
7.2692347 1.7443403 1.7225387
7.3309617 1.7408589 1.727399
7.3750887 1.7325556 1.7308733
7.4371767 1.7285537 1.7357622
7.4767051 1.7185824 1.7388743
7.4835935 1.7003295 1.7394156
7.507761 1.6862664 1.7413177
7.5077772 1.6662318 1.7413177
7.3466625 1.6076478 1.7286272
7.3466783 1.5880431 1.7286272
7.2959099 1.5565599 1.7246275
7.2645411 1.5298333 1.7221556
7.2386074 1.5045168 1.7201118
7.1699862 1.4696957 1.7147059
7.1116271 1.4375316 1.7101085
7.08182 1.4119767 1.7077597
7.1026845 1.397622 1.7094016
7.1096764 1.3801702 1.7099514
7.1700621 1.3740305 1.7147059
7.3696332 1.3967813 1.7304227
7.5053153 1.4052281 1.7411077
7.6693892 1.4187584 1.7540286
7.8080897 1.4262905 1.7649511
7.9063988 1.4250358 1.7726923
7.9460959 1.411737 1.7758175
7.9187899 1.3852364 1.7736657
7.9089174 1.3622149 1.7728869
7.9130516 1.3418868 1.773211
7.9887638 1.3348408 1.7791725
8.0960131 1.3331681 1.7876178
8.1020708 1.3126556 1.7880937
7.2968559 0.36894044 1.7246275
7.2968712 0.34947124 1.7246275
7.2968869 0.33000207 1.7246275
7.2969022 0.3105329 1.7246275
7.2969179 0.29106376 1.7246275
7.2969332 0.27159458 1.7246275
7.2193217 0.24784747 1.7185144
7.2129431 0.22825012 1.7180108
7.209765 0.20884615 1.7177594
7.1106281 0.18493927 1.7099514
7.1433897 0.16742241 1.7125299
7.1504617 0.14865789 1.7130857
7.2595301 -0.021111161 1.7216637
7.1818967 -0.041651353 1.715549
7.0846443 -0.062020838 1.7078896
7.1342001 -0.080439888 1.7117908
7.0975747 -0.099733621 1.7089055
7.0508432 -0.11887646 1.7052245
7.0436702 -0.13770077 1.7046585
7.024158 -0.15647537 1.7031207
7.0188909 -0.1751969 1.7027048
7.1142583 -0.19452 1.7102133
7.1581578 -0.21389249 1.7136689
7.0826669 -0.23211497 1.7077233
7.0447397 -0.25047028 1.7047355
6.9657335 -0.26792768 1.698513
7.0213423 -0.28760159 1.7028908
7.0259008 -0.30643547 1.7032485
7.157238 -0.32845458 1.7135894
7.1500721 -0.34735155 1.7130239
7.0737863 -0.36411804 1.7070158
6.9339857 -0.37838537 1.6960062
6.9179072 -0.39631182 1.6947389
6.9083028 -0.41440013 1.6939815
7.0589552 -0.43899822 1.7058431
7.0380554 -0.45691887 1.7041962
7.1331797 -0.48009712 1.7116854
7.063067 -0.49569547 1.7061633
7.4253645 -0.5926646 1.7346866
6.9486008 -0.58277941 1.6971442
6.9323916 -0.60026366 1.6958667
6.9282174 -0.61847508 1.6955369
6.9165254 -0.63613582 1.6946149
6.9124517 -0.65428984 1.6942931
6.8267932 -0.66625249 1.6875473
6.8989916 -0.69011664 1.693231
7.094193 -0.72432375 1.7086
6.7772875 -0.78906465 1.6836412
6.7773023 -0.80714524 1.6836412
6.7388639 -0.82139468 1.6806133
6.7470813 -0.84021175 1.6812594
6.8125744 -0.86508453 1.686415
6.827888 -0.8849057 1.6876197
6.8556128 -0.9061774 1.6898016
6.8556275 -0.92446661 1.6898016
6.8556418 -0.94275582 1.6898016
6.8556566 -0.96104515 1.6898016
5.4515781 -0.91127324 1.5792397
5.4406652 -0.92426181 1.5783796
5.4598246 -0.9415518 1.5798872
5.4516129 -0.95490301 1.5792397
5.4271045 -0.96576059 1.5773091
5.3450723 -0.96768737 1.5708492
5.2332215 -0.96453536 1.562042
5.1436458 -0.96431291 1.5549881
5.0861826 -0.96878231 1.550463
4.994442 -0.96733546 1.5432386
4.9588013 -0.97472954 1.5404317
4.9107614 -0.97983813 1.5366485
4.8357983 -0.98006904 1.5307455
4.7138243 -0.9717052 1.5211411
4.5978813 -0.96375799 1.5120115
4.552186 -0.96781242 1.5084131
4.5448475 -0.97861624 1.5078346
4.5338793 -0.98870933 1.5069702
4.4780703 -0.99032938 1.5025754
4.4812474 -1.002878 1.5028248
4.4860168 -1.0157508 1.5031995
4.4969063 -1.0298464 1.5040562
4.5081158 -1.0440636 1.504938
4.4913464 -1.0527167 1.5036168
4.4969349 -1.065834 1.5040562
4.4969449 -1.07783 1.5040562
4.5025473 -1.0909948 1.5044965
4.4913845 -1.1006409 1.5036168
4.4802766 -1.1102391 1.5027416
4.4655485 -1.1189926 1.5015812
3.2056913 -1.0935429 1.4023747
3.1946526 -1.0988132 1.4015052
3.1878278 -1.1052873 1.4009672
3.1781065 -1.1108494 1.4002014
3.1524813 -1.1115088 1.3981836
3.131582 -1.1134856 1.3965378
3.1091132 -1.1148636 1.3947682
3.0948687 -1.118696 1.3936462
2.8893685 -1.0851941 1.3774662
2.880944 -1.0901498 1.3768026
2.8754478 -1.0960239 1.3763694
2.8590717 -1.0982603 1.3750796
2.8351953 -1.0979015 1.3731996
2.8116102 -1.0975137 1.3713424
2.7945645 -1.0992211 1.37
2.7786579 -1.1012275 1.3687472
2.7675176 -1.1047937 1.3678699
2.7475209 -1.1052212 1.3662951
2.7132099 -1.1005272 1.3635936
2.692843 -1.1005725 1.3619897
2.6807666 -1.1034578 1.3610387
2.671236 -1.1071908 1.3602879
2.6552889 -1.1085567 1.359032
2.6385694 -1.1095568 1.3577154
2.6117697 -1.1067748 1.3556052
2.5830033 -1.1031241 1.3533401
2.5683932 -1.1045816 1.3521895
2.54527 -1.1027741 1.3503689
2.5203846 -1.1001792 1.3484094
2.501895 -1.0998797 1.3469535
2.4834723 -1.0995072 1.3455029
2.4518435 -1.0939521 1.3430126
2.4411428 -1.0963413 1.3421698
2.4323621 -1.0994229 1.3414781
2.4306507 -1.1052359 1.341343
2.4139433 -1.1051061 1.3400273
2.3899813 -1.1019979 1.3381407
2.3786364 -1.103821 1.3372471
2.1970232 -1.1012884 1.3229461
2.1970277 -1.1071481 1.3229461
2.0876038 -1.087306 1.3143307
2.0848348 -1.091621 1.3141124
2.080894 -1.095389 1.3138019
2.0681634 -1.0951191 1.3127993
2.0550876 -1.0946227 1.3117697
2.0439878 -1.0949701 1.3108957
2.0370107 -1.0971751 1.3103461
2.029593 -1.0991371 1.3097619
2.02619 -1.1029475 1.3094937
2.0227985 -1.1067452 1.3092263
2.0199816 -1.1107981 1.3090043
2.0149274 -1.1137658 1.3086061
2.0138111 -1.1186007 1.3085179
2.0175021 -1.1257546 1.3088081
2.0312498 -1.1378188 1.3098899
2.0384421 -1.1467508 1.3104558
2.0433764 -1.1546111 1.3108438
2.0433807 -1.1600608 1.3108438
5.470046 -3.4225669 1.5805366
5.4866338 -3.4471152 1.5818412
5.4949713 -3.4667718 1.5824965
5.4949832 -3.4814255 1.5824965
5.4700923 -3.4809155 1.5805366
5.4372511 -3.4754095 1.5779507
5.4128804 -3.474932 1.5760317
5.429122 -3.4993796 1.5773091
5.4427338 -3.5222838 1.5783796
5.2636089 -3.6497922 1.5642663
5.2992711 -3.6876278 1.5670722
5.3672767 -3.7473307 1.5724236
5.4015985 -3.7847302 1.5751238
5.4580164 -3.83724 1.5795633
5.4786711 -3.8657949 1.581188
5.481348 -3.8822191 1.5813975
5.4348431 -3.8650384 1.5777366
5.3781633 -3.8406277 1.5732749
5.337409 -3.8268862 1.5700667
5.3139253 -3.8248701 1.5682175
5.2829285 -3.8175137 1.5657772
5.2637429 -3.818223 1.5642663
5.2354894 -3.8124862 1.562042
5.2197618 -3.8153946 1.5608032
5.2879319 -3.8773575 1.5661674
5.3145499 -3.9102829 1.5682613
5.3425617 -3.9443407 1.570465
5.2940402 -3.9239886 1.5666454
5.2312346 -3.8931575 1.5617018
5.1979952 -3.883225 1.5590847
5.2049417 -3.9020855 1.5596308
5.1996155 -3.9121027 1.5592107
5.2196107 -3.9404798 1.5607834
5.2372341 -3.9672351 1.5621696
5.2334614 -3.9784315 1.5618715
5.248642 -4.0035233 1.5630655
5.2297049 -4.0035567 1.5615742
5.1984377 -3.9943702 1.5591128
5.1687713 -3.9862056 1.5567772
5.1297359 -3.9709041 1.5537043
5.1184692 -3.9761515 1.5528166
5.3812609 2.8627536 1.5599649
5.3812723 2.8483837 1.5599649
5.3893032 2.8384607 1.5605758
5.3744397 2.8158603 1.5594425
5.3539901 2.790272 1.5578837
5.393548 2.7975874 1.5608966
5.4002719 2.7868347 1.561408
5.4014354 2.7730377 1.5614958
5.3762097 2.7450237 1.5595732
5.3210349 2.7010977 1.5553688
5.3154593 2.6839101 1.5549433
5.3700795 2.6986845 1.5591034
5.3879433 2.6937671 1.5604634
5.4055414 2.6886151 1.5618033
5.3618155 2.6513298 1.5584714
5.3871584 2.6501789 1.5604012
5.3791571 2.6316497 1.5597906
5.3814554 2.6184621 1.5599649
5.4055991 2.6164427 1.5618033
5.4615908 2.6305077 1.5660679
5.5828552 2.6773298 1.5753051
5.6304674 2.6864007 1.5789312
5.6080265 2.660115 1.5772207
5.5211968 2.6018569 1.5706053
5.4360814 2.5449126 1.5641201
5.409915 2.517489 1.5621259
5.4180317 2.5070179 1.5627434
5.4605055 2.5132608 1.5659783
5.4711385 2.5038316 1.5667874
5.4960942 2.5012555 1.5686874
5.4961061 2.4865797 1.5686874
5.5044837 2.4758945 1.5693247
5.5128856 2.4651768 1.5699639
5.5128975 2.4504561 1.5699639
5.5424805 2.4496055 1.5722167
5.5766792 2.4507492 1.574821
5.6113024 2.4519072 1.5774574
5.6448884 2.4524024 1.5800152
7.5345178 3.1223028 1.7239509
7.6622376 3.1573064 1.7336788
7.6622539 3.1368475 1.7336788
7.2785335 2.8750393 1.7044427
7.1305799 2.7945025 1.6931713
7.0506306 2.7426562 1.6870799
6.9819407 2.6958265 1.6818464
7.0148439 2.6905017 1.6843517
7.2214007 2.7548542 1.7000847
7.3056984 2.7692509 1.7065048
7.3509679 2.7677062 1.7099521
7.3443484 2.7454629 1.7094467
6.2937341 2.0791254 1.6294019
6.2864542 2.0597577 1.6288465
6.2846475 2.0423384 1.6287078
6.2792053 2.02367 1.6282923
6.3120947 2.0181978 1.6307964
6.3453293 2.0126677 1.633327
6.3789163 2.0070791 1.6358844
6.4015102 1.9976233 1.6376041
6.367713 1.9692789 1.6350288
6.334271 1.9412328 1.6324806
6.3011785 1.9134792 1.6299589
6.2793121 1.8895491 1.6282923
6.2793255 1.872784 1.6282923
6.2793388 1.8560189 1.6282923
6.2793522 1.8392539 1.6282923
6.2793655 1.8224888 1.6282923
6.2793789 1.8057237 1.6282923
6.3550472 1.8123195 1.6340548
6.5906305 1.8674628 1.6519978
6.5683036 1.8430874 1.6502961
6.5934043 1.8330965 1.6522069
6.5762925 1.8103878 1.6509025
6.5763068 1.7928301 1.6509025
6.6244988 1.7893772 1.6545721
6.6366677 1.7752169 1.6554979
6.6488819 1.7610046 1.6564273
6.6981463 1.7572774 1.6601784
6.9826384 1.8196392 1.6818464
7.1067843 1.8356797 1.6913009
7.250617 1.8565055 1.702255
7.4086938 1.8804671 1.7142941
7.4534192 1.8728212 1.7176993
7.3666906 1.829612 1.7110925
7.4381232 1.8289454 1.716532
7.4246883 1.8055446 1.7155075
7.3216481 1.7588543 1.7076582
7.35356 1.7475377 1.7100877
7.3990612 1.7395214 1.7135519
7.4810576 1.7404846 1.7197961
7.5356231 1.7341511 1.7239509
7.5330243 1.7133861 1.7237515
7.5566463 1.6990513 1.7255496
7.5356712 1.6737967 1.7239509
7.4426541 1.6314111 1.7168651
7.4375682 1.6103339 1.7164764
7.4121833 1.5845336 1.7145418
7.3862519 1.5587425 1.7125655
7.3605013 1.5331315 1.7106031
7.2968812 1.4990996 1.7057563
7.2654901 1.472605 1.7033644
7.2343674 1.4463377 1.7009928
7.2488813 1.4301846 1.7020969
7.2634516 1.4139667 1.7032056
7.3265181 1.4079834 1.7080077
7.4280634 1.4097434 1.7157406
7.5328054 1.4116236 1.7237167
7.6705875 1.419706 1.7342093
7.7543883 1.4161503 1.7405905
7.8246965 1.409458 1.745944
7.9193406 1.4071754 1.7531509
7.9851232 1.3987896 1.7581598
8.0256357 1.3852187 1.7612439
8.0205679 1.3628343 1.7608567
8.1105013 1.3581426 1.7677048
8.183917 1.3499432 1.773295
8.1880512 1.3288388 1.7736086
7.8985534 0.62283897 1.7515205
7.7874823 0.59118152 1.7430606
7.6212492 0.55501437 1.7303997
7.518683 0.52545452 1.7225875
7.4831491 0.50228536 1.7198802
7.5546036 0.48834631 1.7253206
7.5681667 0.46928874 1.7263522
7.5591464 0.44837108 1.7256641
7.4567709 0.42036101 1.7178664
7.4087906 0.39691308 1.7142115
7.2601204 0.36655733 1.7028884
7.2380013 0.3456617 1.7012028
7.2160168 0.32489309 1.6995274
7.2352748 0.30684602 1.7009928
7.2546358 0.28870255 1.702466
7.2936549 0.27159196 1.7054363
7.3133302 0.2532067 1.7069334
7.3225098 0.23416582 1.7076312
7.3232303 0.21465483 1.707685
7.3010769 0.19406214 1.7059968
7.3010926 0.1745733 1.7059968
7.2912979 0.15467459 1.7052497
7.3531871 -0.019392282 1.7099521
7.2723989 -0.040239297 1.7037988
7.2249022 -0.060241334 1.7001805
7.1924281 -0.079843193 1.6977067
7.1457658 -0.099372134 1.694152
7.1169972 -0.11857287 1.6919601
7.1096854 -0.13758247 1.6914022
7.157351 -0.15660368 1.6950308
7.2453198 -0.17602402 1.7017283
7.3087626 -0.19576035 1.7065583
7.2367244 -0.2146254 1.7010715
7.2342587 -0.2339128 1.7008826
7.2679071 -0.25370225 1.7034438
7.1861863 -0.27171713 1.6972196
7.2302432 -0.29176182 1.7005733
7.2024498 -0.31044108 1.6984558
7.2476153 -0.33079183 1.7018938
7.2662473 -0.35065091 1.7033114
7.20679 -0.36824459 1.6987827
7.1540675 -0.38574266 1.6947668
7.110467 -0.40328422 1.6914457
7.0532799 -0.42007273 1.6870899
7.1961246 -0.44474903 1.6979659
7.1366568 -0.46136117 1.6934365
7.1622372 -0.48159331 1.6953831
7.1154327 -0.49841753 1.691818
7.4646964 -0.5952121 1.7184086
7.244277 -0.60140038 1.7016231
7.1796703 -0.61653668 1.6967024
7.1021028 -0.63045132 1.6907949
7.0526748 -0.64593047 1.6870301
7.0050359 -0.66127646 1.6834012
6.945045 -0.6754334 1.6788322
7.1368537 -0.70899224 1.6934364
7.2976141 -0.74106014 1.7056763
7.5691643 -0.78325498 1.7263522
7.5376415 -0.80073464 1.7239509
7.5376577 -0.82085276 1.7239509
7.2620034 -0.83508134 1.7029589
7.2620187 -0.8544637 1.7029589
7.2073836 -0.86839867 1.6987977
7.1089449 -0.87755895 1.6913009
6.861166 -0.87051105 1.672433
6.8395648 -0.88649571 1.6707872
6.8395791 -0.90475035 1.6707872
6.8525476 -0.92446911 1.6717736
6.8396082 -0.94125974 1.6707872
6.8353157 -0.95900464 1.6704592
5.4164996 -0.9067167 1.5624198
5.4165115 -0.92117286 1.5624198
5.440958 -0.93917322 1.5642803
5.4409699 -0.95369458 1.5642803
5.4165459 -0.96454132 1.5624198
5.3202257 -0.96425402 1.5550849
5.1943965 -0.95885754 1.5455034
5.0968471 -0.95726848 1.5380752
5.0449123 -0.96250522 1.5341198
4.9918942 -0.96728742 1.5300823
4.9804525 -0.97870457 1.5292104
4.9430418 -0.98567021 1.5263612
4.8234558 -0.97832429 1.5172552
4.7150989 -0.97229838 1.5090041
4.5947042 -0.96356273 1.4998367
4.5509586 -0.96796107 1.4965053
4.5314274 -0.97654235 1.4950175
4.5116615 -0.98497605 1.4935117
4.4540191 -0.98619342 1.4891222
4.4571638 -0.99867725 1.4893608
4.4858541 -1.0161101 1.4915446
4.5052805 -1.0318826 1.4930229
4.5229888 -1.0474179 1.4943705
4.5117192 -1.0572207 1.4935117
4.5117288 -1.0692614 1.4935117
4.5117383 -1.0813023 1.4935117
4.5117478 -1.093343 1.4935117
4.5005345 -1.1030073 1.4926572
4.4838133 -1.1114306 1.4913834
4.4562125 -1.117403 1.4892814
4.4137721 -1.1199667 1.4860494
3.1752052 -1.0934623 1.3917342
3.1715016 -1.1008232 1.3914516
3.1697226 -1.1087464 1.3913157
3.1502817 -1.1112708 1.3898351
3.1305621 -1.1136057 1.3883334
3.0961943 -1.1112874 1.3857164
3.0754507 -1.113052 1.3841367
2.8996415 -1.0889419 1.3707503
2.8911531 -1.0939064 1.3701036
2.880693 -1.0981766 1.3693068
2.8600459 -1.0990107 1.3677346
2.8323376 -1.0973727 1.3656247
2.8095164 -1.0972345 1.3638868
2.7969074 -1.1004448 1.3629265
2.7852275 -1.1039062 1.3620368
2.7610483 -1.1029907 1.3601956
2.7427192 -1.1039811 1.3587997
2.7096701 -1.0997146 1.3562833
2.6953566 -1.1018883 1.3551933
2.6863823 -1.1058854 1.3545096
2.6687233 -1.1067213 1.3531649
2.650209 -1.1071538 1.3517549
2.6376588 -1.1096576 1.3507991
2.6139402 -1.1080011 1.3489931
2.6004841 -1.1100067 1.3479683
2.5859022 -1.1115218 1.3468578
2.5390267 -1.1008651 1.3432889
2.5157497 -1.0988591 1.3415165
2.4928963 -1.0968895 1.3397763
2.474839 -1.0966325 1.3384012
2.4495575 -1.0934966 1.3364762
2.4398112 -1.096251 1.3357339
2.4320865 -1.0997428 1.3351454
2.4274306 -1.1043999 1.3347906
2.4143264 -1.105688 1.3337927
2.3913884 -1.1029873 1.332046
2.3784013 -1.1041563 1.3310571
2.1960316 -1.0954295 1.3171701
2.1960363 -1.1012893 1.3171701
2.1960411 -1.1071489 1.3171701
2.0936677 -1.0904518 1.3093754
2.0908267 -1.0947524 1.3091588
2.0877585 -1.0989347 1.3089249
2.0770648 -1.0996143 1.3081106
2.0572784 -1.0960554 1.306604
2.0460398 -1.0963446 1.3057482
2.0372419 -1.0977091 1.3050781
2.0298193 -1.0996702 1.3045129
2.0264142 -1.1034818 1.3042533
2.0218902 -1.106746 1.3039086
2.0190742 -1.1107988 1.303694
2.0140226 -1.1137666 1.3033091
2.0106699 -1.1175252 1.3030535
2.0128577 -1.1239464 1.3032197
2.0257919 -1.1356078 1.304204
2.0322962 -1.1441928 1.3046987
2.0378587 -1.1523491 1.3051218
2.037863 -1.1577864 1.3051218
5.4675894 -3.422569 1.5661578
5.48417 -3.4471171 1.5674188
5.4925036 -3.4667737 1.5680522
5.4925156 -3.4814274 1.5680522
5.4759083 -3.4859569 1.5667874
5.4429817 -3.4804122 1.5642803
5.4185491 -3.4799113 1.5624198
5.4348326 -3.5044107 1.5636582
5.4402895 -3.5222857 1.5640728
5.3388443 -3.7014134 1.5563369
5.3588791 -3.7290294 1.5578609
5.3808169 -3.7580276 1.5595297
5.402627 -3.7870572 1.5611887
5.4432592 -3.8289249 1.5642803
5.478579 -3.8674035 1.5669675
5.5161595 -3.9076116 1.5698268
5.4679613 -3.8893583 1.5661578
5.4011488 -3.8580682 1.5610716
5.3468332 -3.8350348 1.556937
5.3266129 -3.8353012 1.5553973
5.3121071 -3.8394284 1.5542923
5.2921476 -3.8396764 1.5527726
5.263577 -3.8337908 1.5505972
5.2249489 -3.8206873 1.5476565
5.2740059 -3.8692133 1.5513892
5.2773128 -3.8856158 1.55164
5.3088355 -3.9220834 1.5540383
5.3049564 -3.9334714 1.5537422
5.2636442 -3.9180412 1.5505972
5.2342973 -3.910989 1.5483629
5.209022 -3.9067156 1.5464385
5.1845202 -3.9028676 1.5445728
5.1948056 -3.9241629 1.5453548
5.2197857 -3.9562283 1.547255
5.2311115 -3.9784334 1.5481162
5.2615356 -4.0147276 1.5504308
5.2424974 -4.0147204 1.548981
5.2273679 -4.0175033 1.5478287
5.1973577 -4.0091567 1.545544
5.1529789 -3.9899423 1.5421658
5.1298656 -3.9863949 1.5404059
5.3788409 2.8627517 1.5458
5.3788524 2.8483818 1.5458
5.3868799 2.8384588 1.5463898
5.3640509 2.8114572 1.5447092
5.3470588 2.7877846 1.543458
5.4049425 2.8051412 1.5477164
5.4116974 2.7943704 1.5482126
5.4151835 2.7817938 1.5484682
5.3909655 2.7542739 1.5466855
5.3516393 2.7187841 1.5437908
5.3130693 2.6839082 1.540952
5.2611575 2.6421583 1.5371313
5.2662787 2.6308012 1.5375073
5.3641648 2.6681521 1.5447092
5.353055 2.6480091 1.5438907
5.393919 2.6549523 1.5468968
5.3858938 2.6363845 1.5463055
5.3870516 2.6225863 1.5463898
5.3951039 2.6123114 1.5469816
5.4426956 2.6221325 1.5504825
5.5485291 2.6612082 1.558269
5.6042514 2.6744626 1.5623684
5.605505 2.6601131 1.5624597
5.5091014 2.5970619 1.5553653
5.4088588 2.5326214 1.5479885
5.4074826 2.517487 1.5478864
5.4373178 2.5176737 1.5500808
5.4912152 2.5294418 1.5540459
5.5103598 2.5240574 1.5554538
5.5187845 2.5133967 1.5560727
5.5187964 2.4986537 1.5560727
5.5188084 2.4839106 1.5560727
5.5188198 2.4691675 1.5560727
5.5188317 2.4544244 1.5560727
5.5527534 2.4555936 1.5585678
5.5784721 2.452754 1.5604593
5.6131334 2.4539254 1.5630085
5.6482277 2.4551115 1.56559
7.6587925 3.1573036 1.7135118
7.7023244 3.15552 1.7167137
7.7908735 3.1727026 1.7232275
7.7908902 3.1518908 1.7232275
7.7909069 3.131079 1.7232275
7.7574863 3.0962741 1.7207673
7.3976731 2.9259355 1.6942925
7.3065925 2.8685398 1.68759
7.2264833 2.8161345 1.6816947
7.1564298 2.7682576 1.6765394
7.1680288 2.7538338 1.6773916
7.2500935 2.7677057 1.6834285
7.298903 2.7678447 1.6870185
7.3327589 2.7617853 1.6895082
7.3278193 2.7402434 1.6891438
6.2909179 2.0623193 1.6128379
6.2872844 2.0442424 1.6125698
6.276382 2.0236678 1.6117667
6.3092566 2.0181954 1.6141843
6.3424764 2.0126655 1.6166275
6.3873129 2.0108881 1.6199251
6.4213619 2.00525 1.622429
6.3873401 1.9767655 1.6199251
6.3536777 1.9485809 1.6174474
6.3093371 1.9170781 1.6141843
6.2764888 1.889547 1.6117667
6.2765021 1.8727819 1.6117667
6.2765155 1.8560168 1.6117667
6.2765288 1.8392516 1.6117667
6.2765422 1.8224865 1.6117667
6.2765555 1.8057214 1.6117667
6.3267822 1.8044682 1.6154608
6.5072632 1.8428369 1.6287378
6.5706525 1.8446949 1.6334003
6.6303444 1.8451017 1.6377908
6.6715307 1.8396707 1.6408198
6.6417799 1.8130534 1.63863
6.6621928 1.8012873 1.6401308
6.6581173 1.7823055 1.6398299
6.666316 1.766875 1.640432
6.7200246 1.7643652 1.6443821
6.9061713 1.7989433 1.6580756
7.0527787 1.8214741 1.6688602
7.2225375 1.8496314 1.681348
7.3537197 1.8663043 1.6909976
7.3683662 1.8506352 1.6920738
7.3310289 1.8209122 1.6893259
7.4761953 1.8399665 1.7000043
7.4998646 1.8262305 1.7017444
7.3385162 1.7641098 1.6898733
7.3928385 1.7585287 1.6938684
7.4747338 1.759702 1.6998922
7.5761876 1.7653826 1.7073547
7.6437058 1.7620324 1.7123206
7.6275964 1.7376257 1.7111342
7.5955639 1.7094073 1.7087764
7.5637994 1.681425 1.7064384
7.5480247 1.6574414 1.7052768
7.5244775 1.6317018 1.7035433
7.4855471 1.6024866 1.7006782
7.4745092 1.5799352 1.6998651
7.5068302 1.5673622 1.7022417
7.466351 1.538156 1.6992625
7.46385 1.5176519 1.6990775
7.4437947 1.493286 1.697601
7.4013624 1.464147 1.6944782
7.470192 1.4592026 1.6995404
7.5235033 1.4505891 1.7034611
7.6683974 1.46093 1.714119
7.6760626 1.4420352 1.7146816
7.7323933 1.4330629 1.7188243
7.8382325 1.4337935 1.726609
7.8382492 1.4128588 1.726609
7.950593 1.4140209 1.7348722
8.0646124 1.4149081 1.7432585
8.1669874 1.4129577 1.7507882
8.1987524 1.397136 1.7531239
8.2080765 1.3769701 1.7538083
8.2643776 1.3653682 1.7579488
8.254961 1.341591 1.7572547
8.0155668 0.63463807 1.7396055
7.9234691 0.60446048 1.7328298
7.7632017 0.56846595 1.7210395
7.6129513 0.53422809 1.7099864
7.578321 0.5108757 1.707438
7.7169657 0.50235605 1.717635
7.7390037 0.48354998 1.719255
7.7201366 0.46138689 1.7178659
7.6057129 0.43201229 1.709448
7.5657167 0.4087458 1.7065049
7.3875675 0.37585887 1.6933998
7.343493 0.35310933 1.6901568
7.3240809 0.33221903 1.6887277
7.3325839 0.31319588 1.689352
7.3581786 0.29516143 1.6912334
7.3925781 0.2774995 1.6937627
7.5386405 0.26581299 1.704505
7.5536542 0.24646801 1.7056082
7.5412927 0.22567925 1.7046976
7.5021944 0.20369604 1.7018206
7.4866776 0.18297058 1.7006782
7.460948 0.16190115 1.6987846
7.4202638 -0.01814425 1.6957817
7.3450632 -0.039095365 1.6902493
7.2881913 -0.05941695 1.686065
7.2613754 -0.079141408 1.6840914
7.2489142 -0.098620817 1.6831738
7.281878 -0.11783294 1.6855973
7.2447963 -0.13734339 1.6828686
7.2531152 -0.15669765 1.6834794
7.2760639 -0.17614882 1.6851661
7.335114 -0.19594862 1.6895082
7.3065476 -0.21528089 1.6874059
7.313529 -0.23487304 1.6879183
7.4778652 -0.25674868 1.7000043
7.4483757 -0.2762174 1.6978341
7.4052892 -0.29526186 1.694664
7.3126049 -0.31297076 1.6878458
7.3558278 -0.33357632 1.6910237
7.4002852 -0.3544468 1.6942925
7.3537221 -0.37279689 1.6908666
7.3056326 -0.39084798 1.6873283
7.2585144 -0.40867674 1.6838619
7.2421255 -0.42743096 1.6826553
7.2561178 -0.44734254 1.6836833
7.1674967 -0.46284983 1.677164
7.2440863 -0.48553613 1.6827961
7.2104592 -0.50323194 1.6803218
7.4512539 -0.53492451 1.6980307
7.4308553 -0.55371249 1.6965293
7.4674044 -0.57563746 1.6992162
7.532599 -0.59946668 1.70401
7.3780179 -0.60994327 1.6926396
7.271543 -0.62272167 1.6848074
7.2121696 -0.63811922 1.6804396
7.16118 -0.6537894 1.6766882
7.2351694 -0.67831326 1.6821289
7.3513775 -0.70642769 1.6906745
7.4115214 -0.73076928 1.6950969
7.4934416 -0.75719655 1.7011207
7.5763288 -0.78414214 1.7072154
7.5342536 -0.80073726 1.7041199
7.5342698 -0.8208555 1.7041199
7.5975995 -0.84678006 1.7087764
7.4602919 -0.85410655 1.6986767
7.4603076 -0.87402701 1.6986767
7.4021525 -0.88814688 1.6943985
7.2626195 -0.89362347 1.6841353
6.9790854 -0.88322616 1.6632814
6.8960838 -0.89291823 1.657176
6.8624501 -0.90761721 1.6547014
6.8494678 -0.9244715 1.6537455
6.8236351 -0.93976927 1.6518445
6.8150778 -0.95697439 1.651214
5.3818388 -0.90221429 1.5458
5.3925495 -0.91810846 1.546587
5.4249163 -0.93720222 1.5489664
5.4385242 -0.95369649 1.5499663
5.4385362 -0.96821785 1.5499663
5.3583546 -0.97046018 1.5440688
5.1949029 -0.95930195 1.532047
5.0904584 -0.95662093 1.5243652
5.0356236 -0.96137571 1.5203317
4.9827762 -0.96616316 1.5164444
4.9782143 -0.97870636 1.5161082
4.9340801 -0.98453188 1.5128616
4.7984867 -0.97440863 1.5028892
4.6950331 -0.96916878 1.4952801
4.5771403 -0.96081889 1.4866095
4.5423841 -0.96678841 1.4840527
4.5293913 -0.97654402 1.4830966
4.509634 -0.9849776 1.481643
4.4447227 -0.98482466 1.4768686
4.4452524 -0.99679124 1.4769067
4.4817214 -1.0157027 1.479588
4.4960575 -1.0304747 1.4806416
4.5153122 -1.0462992 1.4820567
4.5096917 -1.0572224 1.481643
4.5097013 -1.0692631 1.481643
4.5153413 -1.0824666 1.4820567
4.5097203 -1.0933447 1.481643
4.4929237 -1.101825 1.480407
4.4734826 -1.1096486 1.4789765
4.437037 -1.1136748 1.4762957
4.390029 -1.1151843 1.4728382
4.3752027 -1.1236041 1.4717472
3.1589949 -1.0890688 1.3822949
3.1562455 -1.0966759 1.3820921
3.1572361 -1.1054001 1.3821645
3.145736 -1.1103164 1.3813183
3.1291554 -1.1136068 1.3800986
3.0816195 -1.1071935 1.3766026
3.0547829 -1.1070111 1.3746288
2.9949989 -1.0962757 1.3702322
2.9759963 -1.0982149 1.3688344
2.9599988 -1.1010182 1.3676575
2.9177096 -1.0952184 1.3645475
2.9045508 -1.0987079 1.3635794
2.8905749 -1.101858 1.3625512
2.8595142 -1.0992619 1.3602669
2.8285348 -1.096527 1.3579885
2.8155401 -1.0996932 1.3570325
2.8005981 -1.1021279 1.3559333
2.7818351 -1.1031735 1.3545531
2.7556026 -1.1015397 1.3526238
2.7374852 -1.1025897 1.3512912
2.7182903 -1.1031651 1.3498794
2.7043605 -1.1054984 1.3488547
2.6953938 -1.1095241 1.3481948
2.667721 -1.1067928 1.3461597
2.6403167 -1.1040108 1.3441442
2.6288092 -1.1068689 1.3432977
2.6168611 -1.1095036 1.3424187
2.5992267 -1.1099749 1.3411216
2.5837607 -1.1111584 1.3399839
2.5405593 -1.1018677 1.336807
2.5154939 -1.0991899 1.3349636
2.4926348 -1.0972166 1.3332824
2.474694 -1.0970035 1.3319628
2.4517758 -1.0947764 1.3302772
2.4424787 -1.0977123 1.3295932
2.4342654 -1.1010219 1.3289889
2.429599 -1.1056828 1.3286455
2.415659 -1.1066462 1.32762
2.3918943 -1.1036183 1.3258723
2.378896 -1.1047845 1.3249161
2.195045 -1.0954304 1.3113941
2.1950495 -1.10129 1.3113941
2.1950543 -1.1071496 1.3113941
2.0970945 -1.0924152 1.3041899
2.0942659 -1.0967326 1.3039817
2.0916469 -1.1011301 1.3037887
2.0829625 -1.1027395 1.3031498
2.0630555 -1.0991392 1.3016858
2.0458918 -1.0967022 1.3004236
2.0350993 -1.0971385 1.2996297
2.026634 -1.0986068 1.2990071
2.0232379 -1.102416 1.2987571
2.0176001 -1.1051459 1.2983422
2.0164797 -1.1099962 1.2982595
2.0119979 -1.1132313 1.2979296
2.0100856 -1.1176795 1.2977887
2.0149951 -1.1254196 1.2981493
2.0261776 -1.1362394 1.2989713
2.0336671 -1.1453114 1.2995216
2.0392394 -1.1534799 1.299931
2.0400105 -1.1593026 1.2999873
5.5151076 -3.4377823 1.5554538
5.4816947 -3.4324877 1.5529964
5.4928026 -3.4537933 1.5538123
5.4983792 -3.4718165 1.5542212
5.4983912 -3.4864924 1.5542212
5.4900594 -3.4960828 1.5536078
5.4569488 -3.4904609 1.5511727
5.4323792 -3.489913 1.5493658
5.4351115 -3.5060925 1.5495657
5.4414802 -3.5245419 1.5500331
5.3840933 -3.7331245 1.5458
5.398386 -3.7570367 1.5468497
5.4082603 -3.7780612 1.5475748
5.4217792 -3.8015931 1.5485678
5.449008 -3.8344674 1.5505686
5.4885783 -3.8758645 1.5534767
5.5263138 -3.9162226 1.5562499
5.4820676 -3.9006917 1.5529964
5.422998 -3.8747435 1.5486531
5.3642397 -3.8486953 1.544333
5.3399353 -3.8461809 1.5425456
5.3253503 -3.8502908 1.5414724
5.3052826 -3.8504984 1.5399964
5.2967353 -3.8586652 1.5393672
5.2377219 -3.8313167 1.5350285
5.2754803 -3.8719268 1.5378032
5.263432 -3.8774662 1.5369167
5.2948027 -3.9138055 1.5392218
5.2986908 -3.9307032 1.5395068
5.2766242 -3.9290328 1.537884
5.2716928 -3.9395628 1.5375206
5.2444148 -3.933943 1.5355147
5.2045531 -3.9190638 1.5325835
5.199934 -3.9295888 1.5322433
5.2061801 -3.948015 1.5327015
5.2158403 -3.9689746 1.5334108
5.2723093 -4.0243835 1.5375611
5.2657442 -4.0336041 1.5370777
5.2591944 -4.0428014 1.5365953
5.228806 -4.0342546 1.5343606
5.191308 -4.0202451 1.5316033
5.1592426 -4.0101004 1.5292456
5.142633 -4.0113902 1.528024
5.376421 2.8627498 1.531635
5.3764324 2.8483799 1.531635
5.3924928 2.8429172 1.5327742
5.3856144 2.8246984 1.5322852
5.3741822 2.8040137 1.5314729
5.4268551 2.8184555 1.5352108
5.454174 2.8188148 1.5371493
5.4541855 2.8042369 1.5371493
5.427278 2.7751503 1.5352385
5.3810997 2.735873 1.5319599
5.3119802 2.6846006 1.5270529
5.2500577 2.6375194 1.5226567
5.2665191 2.6321776 1.5238243
5.3357344 2.6544757 1.5287366
5.361763 2.65382 1.5305834
5.400703 2.6597419 1.5333464
5.3926535 2.6411355 1.5327742
5.3846283 2.6225843 1.5322038
5.3926768 2.6123095 1.5327742
5.4390764 2.6215343 1.536067
5.5500898 2.6632624 1.543946
5.5782561 2.6626246 1.5459442
5.5684428 2.6427879 1.5452468
5.4938645 2.5906951 1.5399525
5.4110518 2.5349152 1.5340737
5.4352503 2.5323899 1.5357904
5.466589 2.5332398 1.5380139
5.5174818 2.5434682 1.5416256
5.5433731 2.541286 1.5434623
5.5259433 2.51805 1.5422245
5.5259547 2.5032811 1.5422245
5.5247602 2.487936 1.5421388
5.5332327 2.4771874 1.5427393
5.5332441 2.4623992 1.5427393
5.5673594 2.4636211 1.5451599
5.5845814 2.456775 1.5463815
5.6106086 2.4539232 1.5482278
5.6456871 2.4551094 1.5507169
7.7207937 3.1649344 1.6979889
7.7873688 3.1726997 1.7027129
7.7873855 3.1518879 1.7027129
7.7874022 3.1310761 1.7027129
7.7651048 3.1009221 1.7011293
7.6002378 3.0115807 1.6894264
7.515089 2.9560697 1.6833819
7.4368238 2.9038403 1.6778259
7.3236375 2.8377831 1.6697916
7.2579069 2.7915645 1.6651253
7.2662625 2.7755258 1.6657172
7.2851133 2.7636402 1.6670541
7.3146229 2.7558885 1.6691473
7.324523 2.7402408 1.6698489
6.2880883 2.0623169 1.5962739
6.2844563 2.0442402 1.5960153
6.2735591 2.0236654 1.595241
6.2954321 2.014416 1.5967923
6.3174567 2.0051012 1.5983545
6.3619599 2.0032768 1.601512
6.4070935 2.0014267 1.604714
6.3844671 1.9767631 1.6031075
6.3620005 1.9522732 1.601512
6.317524 1.9206895 1.5983545
6.2736659 1.8895446 1.595241
6.2736793 1.8727795 1.595241
6.2736926 1.8560144 1.595241
6.273706 1.8392494 1.595241
6.2737193 1.8224843 1.595241
6.2737327 1.8057191 1.595241
6.3113132 1.8005648 1.5979071
6.4582815 1.828724 1.6083362
6.5544615 1.8406727 1.6151611
6.6173444 1.8420836 1.6196228
6.665163 1.8386635 1.6230153
6.6398091 1.8133515 1.621215
6.6551085 1.8000871 1.6222998
6.6643276 1.7849758 1.6229529
6.6797395 1.7715968 1.6240458
6.7357817 1.7697151 1.628022
6.8377566 1.7805023 1.635258
6.9995394 1.8074701 1.6467381
7.1864743 1.8405397 1.6600032
7.2910919 1.8500296 1.6674266
7.2614574 1.8224922 1.6653225
7.2396517 1.797219 1.6637738
7.3147817 1.7978761 1.6691046
7.4898319 1.8244724 1.6815259
7.3352156 1.7641072 1.6705523
7.3945527 1.7598277 1.6747621
7.5389123 1.7769629 1.6850057
7.6367917 1.7815704 1.6919506
7.73843 1.7865952 1.6991624
7.7177892 1.7608026 1.6976962
7.6972575 1.7351471 1.696238
7.6484022 1.7027404 1.69277
7.6001635 1.6707426 1.6893455
7.586504 1.6471946 1.688375
7.6135387 1.6332511 1.6902924
7.6457701 1.6203661 1.6925786
7.6040354 1.5903802 1.6896157
7.5604939 1.5602083 1.6865247
7.5548649 1.5387443 1.6861241
7.5526257 1.518059 1.685964
7.586617 1.5052906 1.688375
7.6381731 1.4961261 1.6920323
7.7918935 1.508431 1.7029399
7.8962207 1.5095333 1.710342
8.1559 1.542313 1.7287686
8.2278337 1.5352499 1.7338718
8.2829266 1.5243986 1.7377805
7.9244776 1.43076 1.7123425
7.9938917 1.4232434 1.717267
8.0893383 1.4204096 1.7240391
8.1817951 1.4164932 1.7305989
8.2863302 1.414363 1.7380155
8.3602839 1.4059826 1.7432622
8.4177923 1.3941901 1.7473419
8.3658495 1.3623046 1.7436546
8.3278284 0.68782115 1.7409188
8.1788778 0.65098166 1.7303485
8.0792971 0.61964142 1.7232814
7.8514857 0.57696056 1.7071154
7.7785096 0.54941976 1.701936
7.7161674 0.5231967 1.6975113
7.7730803 0.50739253 1.7015485
7.9242735 0.499006 1.7122754
7.9532337 0.48012725 1.7143292
8.0814819 0.46869501 1.7234279
8.0387039 0.44394121 1.7203912
7.9262328 0.41445294 1.7124095
7.8136468 0.38555804 1.7044199
7.7672863 0.36162701 1.7011293
7.7340622 0.33877411 1.6987706
7.7673192 0.32012263 1.7011293
7.7896562 0.30066168 1.7027129
7.7864771 0.27967346 1.702486
7.7760086 0.25831959 1.7017422
7.7420335 0.23585013 1.6993303
7.6415033 0.21042323 1.6921961
7.6173639 0.18893254 1.6904821
7.6577258 0.17026863 1.6933448
7.8575096 0.15763059 1.7075191
8.0680819 0.036539778 1.7224528
7.9544635 0.012660906 1.7143899
7.48347 -0.016963974 1.6809707
7.4140453 -0.038006082 1.6760436
7.384129 -0.05818592 1.6739199
7.3615866 -0.078133844 1.6723194
7.4467196 -0.097197726 1.6783587
7.5524998 -0.11662519 1.6858627
7.4118485 -0.13704838 1.6758821
7.4492736 -0.15688454 1.6785364
7.4668756 -0.17684931 1.6797842
7.5095258 -0.19706503 1.6828091
7.4385271 -0.21649262 1.6777705
7.43046 -0.23627147 1.677197
7.6272883 -0.25893345 1.691161
7.6365118 -0.27946645 1.6918143
7.636528 -0.29986796 1.6918143
7.4859223 -0.3169111 1.6811275
7.4215307 -0.33530203 1.6765579
7.4528799 -0.35599512 1.678781
7.4157619 -0.37478027 1.6761463
7.3682685 -0.39302486 1.6727756
7.3461785 -0.41192129 1.6712072
7.4001937 -0.43361643 1.6750386
7.3214107 -0.45015574 1.6694478
7.4055047 -0.47338659 1.6754131
7.6856604 -0.50615215 1.6952887
7.7511816 -0.52989495 1.6999362
7.9111466 -0.55886883 1.7112843
7.5687175 -0.5613901 1.6869884
7.5217361 -0.57892984 1.683654
7.5213785 -0.59900177 1.6836274
7.410522 -0.61217999 1.6757611
7.3148484 -0.62575352 1.6689724
7.2585578 -0.64148241 1.6649774
7.2398825 -0.65955782 1.6636513
7.4359393 -0.6932205 1.67756
7.6032143 -0.7257508 1.6894264
7.6246133 -0.74773872 1.6909435
7.6002011 -0.76612711 1.6892105
7.5804839 -0.78477824 1.6878105
7.5308661 -0.80074 1.6842891
7.5488558 -0.82245934 1.6855643
7.6874962 -0.85534441 1.695399
7.6837511 -0.87552583 1.6951323
7.6884365 -0.89650559 1.6954635
7.6182389 -0.91003942 1.6904821
7.4654179 -0.9147346 1.679639
7.1346111 -0.89990556 1.6561687
6.9772453 -0.90200245 1.6450031
6.8892441 -0.9109199 1.6387589
6.8463879 -0.924474 1.6357174
6.8077221 -0.93828428 1.6329732
6.79494 -0.95495427 1.6320654
5.3901248 -0.91811037 1.5323937
5.42519 -0.93759787 1.5348806
5.4319949 -0.95309472 1.5353625
5.4279284 -0.96699131 1.5350733
5.3491526 -0.96942163 1.5294838
5.1925669 -0.95930374 1.5183744
5.094316 -0.95759714 1.5114034
5.0464087 -0.96348107 1.508004
5.006979 -0.9704982 1.5052061
4.9862709 -0.98042274 1.5037363
4.9270601 -0.98372114 1.4995348
4.7818274 -0.97191775 1.4892312
4.7039137 -0.97108912 1.483703
4.5933523 -0.96405828 1.4758589
4.5534129 -0.96914172 1.4730251
4.5330315 -0.9775821 1.4715784
4.5019927 -0.98393941 1.4693758
4.4372711 -0.9838016 1.4647837
4.4409142 -0.99634707 1.4650414
4.4741621 -1.0146329 1.4673994
4.4828906 -1.0282927 1.4680179
4.4964414 -1.0429564 1.4689785
4.4908652 -1.053843 1.4685824
4.4964604 -1.066978 1.4689785
4.5076833 -1.0813055 1.469774
4.502079 -1.0921715 1.4693758
4.4853315 -1.1006457 1.468187
4.463191 -1.1078731 1.4666158
4.4180079 -1.1099751 1.4634099
4.3737302 -1.1120349 1.4602681
4.360342 -1.1207352 1.4593177
4.3089576 -1.1208034 1.455672
4.29143 -1.1283152 1.454428
4.219645 -1.1232196 1.449335
4.1972585 -1.1292657 1.4477463
3.1575747 -1.08907 1.3739815
3.1548264 -1.0966769 1.373786
3.1589677 -1.1063552 1.3740792
3.1542494 -1.1133497 1.3737442
3.1246593 -1.1126561 1.3716447
3.0798593 -1.1070782 1.3684664
3.0480161 -1.1053218 1.3662072
3.0038383 -1.0994965 1.363073
2.9835422 -1.1010478 1.3616328
2.9635184 -1.1025783 1.3602121
2.9329586 -1.100587 1.3580439
2.9173005 -1.1033019 1.3569329
2.897711 -1.1046381 1.3555429
2.8605981 -1.1000499 1.3529099
2.8357105 -1.0993561 1.3511441
2.8252702 -1.1034048 1.3504031
2.8145936 -1.1073173 1.3496454
2.7940912 -1.1078047 1.3481908
2.7656002 -1.1054226 1.3461695
2.7457538 -1.1058977 1.3447611
2.7300618 -1.1077245 1.3436477
2.708931 -1.1075448 1.3421485
2.6947558 -1.1097293 1.3411425
2.6645565 -1.1060886 1.3390002
2.6319938 -1.1014322 1.3366901
2.6130683 -1.101568 1.3353472
2.602773 -1.1047683 1.3346165
2.5955713 -1.1090568 1.3341054
2.5825992 -1.1111593 1.3331848
2.5414572 -1.1026334 1.3302662
2.5184498 -1.1007335 1.3286339
2.4915142 -1.0972174 1.326723
2.4704428 -1.0958027 1.3252281
2.4461732 -1.0930424 1.3235062
2.4373837 -1.0961616 1.3228824
2.4282689 -1.0991067 1.3222356
2.4236233 -1.1037619 1.3219057
2.4090569 -1.1044617 1.3208722
2.3876617 -1.1023597 1.3193542
2.3724771 -1.1026374 1.3182769
2.3566217 -1.1025628 1.3171519
2.3407888 -1.1024126 1.3160285
2.3267353 -1.1029066 1.3150314
2.3217599 -1.1070677 1.3146781
2.1940582 -1.0954311 1.3056182
2.1940627 -1.1012908 1.3056182
2.1940675 -1.1071504 1.3056182
2.0973675 -1.0929625 1.298758
2.0935938 -1.0968552 1.29849
2.0917144 -1.1015894 1.2983564
2.0833399 -1.1033413 1.2977622
2.0584388 -1.0974418 1.2959956
2.0438712 -1.0961932 1.2949622
2.0336123 -1.0968729 1.2942343
2.0251555 -1.0983418 1.2936342
2.0217631 -1.1021504 1.2933933
2.0161309 -1.1048803 1.2929934
2.0155733 -1.1099969 1.2929536
2.0110936 -1.113232 1.2926356
2.0096607 -1.1179107 1.2925336
2.0160141 -1.1263525 1.292984
2.0265641 -1.1368719 1.2937319
2.0338962 -1.145872 1.2942516
2.0394723 -1.1540465 1.2946467
2.0406277 -1.1600629 1.2947284
5.5126286 -3.4377842 1.5409434
5.5126405 -3.4525049 1.5409434
5.5126519 -3.4672253 1.5409434
5.5126638 -3.481946 1.5409434
5.5126758 -3.4966664 1.5409434
5.5042973 -3.5062709 1.5403482
5.4792891 -3.5056465 1.538574
5.4545078 -3.5050278 1.5368156
5.4463043 -3.5145183 1.5362332
5.4247494 -3.7907612 1.5346882
5.4520216 -3.8236146 1.5366212
5.4520335 -3.8381724 1.5366212
5.4695172 -3.8645964 1.5378604
5.4944582 -3.8961978 1.539628
5.4658008 -3.8912458 1.537595
5.4136052 -3.8699663 1.5338929
5.3618288 -3.8486972 1.5302205
5.3336 -3.8434572 1.528218
5.3308029 -3.855747 1.5280187
5.3184953 -3.8613842 1.5271454
5.3051319 -3.8662164 1.526197
5.2658591 -3.8527586 1.5234112
5.2731094 -3.8719287 1.5239245
5.2566967 -3.8743725 1.5227598
5.2731318 -3.9000883 1.5239245
5.2874603 -3.9243884 1.5249398
5.2874713 -3.9385064 1.5249398
5.2913508 -3.955406 1.5252141
5.2649517 -3.9504702 1.5233412
5.2172236 -3.9299397 1.5199559
5.197597 -3.9295907 1.5185635
5.1889086 -3.9371188 1.5179465
5.2059917 -3.9634793 1.5191572
5.2699394 -4.0243855 1.5236911
5.2831483 -4.0481935 1.5246267
5.2875724 -4.065568 1.5249398
5.2644939 -4.0625257 1.5233026
5.2340307 -4.0538526 1.5211415
5.1989307 -4.0415454 1.5186518
5.1491041 -4.0179892 1.5151179
5.1141658 -4.0053906 1.5126398
5.374001 2.8627479 1.5174701
5.3740125 2.8483779 1.5174701
5.3820329 2.838455 1.5180179
5.3706102 2.817745 1.517236
5.3809104 2.809042 1.5179394
5.4399762 2.8269706 1.5219775
5.4611406 2.8239436 1.5234239
5.4991689 2.829941 1.5260234
5.4729877 2.8011129 1.5242325
5.4248466 2.7606425 1.5209398
5.3017945 2.6804373 1.5125251
5.313879 2.6726737 1.5133505
5.2611747 2.6306043 1.5097461
5.3265905 2.6509287 1.5142183
5.3434901 2.6455209 1.515373
5.3902149 2.6555464 1.5185671
5.3821931 2.6369739 1.5180179
5.3822045 2.6225824 1.5180179
5.3902493 2.6123075 1.5185671
5.4377985 2.6221285 1.5218176
5.5322146 2.655462 1.5282726
5.5757456 2.6626227 1.5312483
5.5788336 2.6492572 1.5314586
5.5077424 2.5988536 1.526597
5.4382458 2.5496216 1.5218443
5.4627395 2.547168 1.5235182
5.4902344 2.5460572 1.5253973
5.5234327 2.5475857 1.5276666
5.5408778 2.5412841 1.5288584
5.5186334 2.5157182 1.5273368
5.523468 2.5032792 1.5276666
5.536787 2.4948671 1.5285764
5.5562687 2.489311 1.5299077
5.5648417 2.4784985 1.530493
5.5906968 2.4757564 1.5322599
5.5993762 2.4648559 1.5328528
5.6168046 2.4579709 1.5340436
5.643146 2.4551075 1.5358437
7.7838478 3.1935091 1.6821982
7.783864 3.1726971 1.6821982
7.7838807 3.1518853 1.6821982
7.7838974 3.1310735 1.6821982
7.7671747 3.10325 1.6810536
7.6845617 3.0480947 1.6754042
7.6243243 3.002634 1.6712846
7.5672898 2.958811 1.6673839
7.4469423 2.8894522 1.6591547
7.3681045 2.8375683 1.6537633
7.3134155 2.7958336 1.650023
7.3113155 2.7754338 1.6498785
7.3410521 2.7676983 1.6519105
7.3610163 2.7559457 1.6532743
6.270709 2.0571935 1.5787152
6.2707224 2.0404284 1.5787152
6.2707357 2.0236633 1.5787152
6.2816548 2.0106492 1.5794609
6.2926121 1.9975902 1.580209
6.3256865 1.9919616 1.5824693
6.3591104 1.9862736 1.5847534
6.3479481 1.9655477 1.5839894
6.3368244 1.9448947 1.5832281
6.3036609 1.9170736 1.5809598
6.2708426 1.8895425 1.5787152
6.2708559 1.8727773 1.5787152
6.2708693 1.8560122 1.5787152
6.2708826 1.8392472 1.5787152
6.270896 1.8224821 1.5787152
6.2709093 1.805717 1.5787152
6.2896419 1.7947398 1.579995
6.4043603 1.8130844 1.5878367
6.5833545 1.8503455 1.6000729
6.6340361 1.8480051 1.6035366
6.6850619 1.8454964 1.6070242
6.6490383 1.8169632 1.6045605
6.6398854 1.7965 1.6039337
6.6674762 1.7867593 1.605819
6.6952977 1.7769371 1.6077201
6.7453237 1.7732975 1.6111391
6.8217726 1.7768539 1.6163644
6.9311829 1.7892237 1.6238432
7.0727286 1.8099134 1.6335189
7.1788368 1.8201206 1.6407716
7.2581902 1.8224896 1.6461957
7.2614808 1.8039671 1.6464195
7.379776 1.8160657 1.6545054
7.5020103 1.8285704 1.6628606
7.3596573 1.7713473 1.6531279
7.4259567 1.7687993 1.6576593
7.6715522 1.811746 1.6744478
7.7801514 1.8187133 1.6818707
7.9215369 1.8333086 1.691535
7.8998985 1.8067677 1.6900547
7.8955979 1.7845907 1.6897596
7.8320293 1.7480735 1.6854126
7.6611905 1.6861863 1.6737329
7.6288471 1.6580362 1.6715206
7.6585164 1.6445905 1.6735476
7.7005143 1.6338421 1.6764176
7.6558433 1.6030238 1.6733627
7.6300635 1.5767196 1.6715991
7.6289282 1.5560647 1.6715206
7.6450906 1.539238 1.6726243
7.6908369 1.5287826 1.6757504
7.9918599 1.5731227 1.6963273
8.1280289 1.5807501 1.7056348
8.2330208 1.581094 1.7128109
8.3515949 1.583696 1.7209154
8.5891504 1.610045 1.7371534
8.5758533 1.5843912 1.7362431
8.4715271 1.5406421 1.7291104
8.1482134 1.4543335 1.7070074
8.1831379 1.4393313 1.7093936
8.3070726 1.4411919 1.7178648
8.4177046 1.4398772 1.7254261
8.4543085 1.4241873 1.7279271
8.4798422 1.4062699 1.7296714
8.3626194 0.69169688 1.7216204
8.3049631 0.66369271 1.7176781
8.1994257 0.63143361 1.7104629
8.0044479 0.59145403 1.6971344
7.8732171 0.55825138 1.688163
7.7907667 0.5300082 1.6825261
7.873251 0.5161612 1.688163
8.1079035 0.51434147 1.7042012
8.1682777 0.49745342 1.7083268
8.2659359 0.48309818 1.7150009
8.2382584 0.45895633 1.7131077
8.1472788 0.43045262 1.706888
8.0246792 0.40026721 1.6985067
7.9827204 0.3760514 1.6956376
7.9526143 0.35280946 1.6935786
8.002965 0.33460036 1.697019
8.0437088 0.31556618 1.6998028
8.0076447 0.29207397 1.6973366
7.9714823 0.26876947 1.6948637
7.8882036 0.2433092 1.6891702
7.8102646 0.21854609 1.6838418
7.777853 0.19622648 1.6816254
7.7862506 0.17578769 1.6821982
7.9228692 0.16032624 1.691535
8.1005287 0.14563245 1.7036771
8.186202 0.12687773 1.7095317
8.1127415 0.037653878 1.7045059
8.0120087 0.01390852 1.6976197
7.6544271 -0.01386629 1.673178
7.5901208 -0.035297468 1.6687814
7.5060353 -0.056630827 1.6630331
7.5164623 -0.076591566 1.6637447
7.6429262 -0.095784843 1.6723875
7.8129663 -0.11546143 1.6840082
7.8153739 -0.1363399 1.6841718
7.767385 -0.15718456 1.6808906
7.7388797 -0.17784268 1.6789411
7.584938 -0.19756177 1.6684185
7.5147128 -0.21720658 1.6636176
7.5386968 -0.23757026 1.6652557
7.754765 -0.26080674 1.6800225
7.7866154 -0.28207347 1.6821982
7.7674999 -0.3025097 1.6808907
7.5812454 -0.31911525 1.6681595
7.4951358 -0.33722675 1.6622729
7.511477 -0.35771084 1.6633886
7.4803896 -0.37684396 1.661263
7.4342299 -0.39531341 1.6581069
7.4444575 -0.41554749 1.6588048
7.5249505 -0.43853027 1.6643052
7.4220185 -0.45441997 1.6572691
7.5642419 -0.48046979 1.6669885
7.9186831 -0.51711833 1.6912121
7.9762578 -0.54110503 1.695146
7.9719653 -0.56220043 1.6948514
7.7450614 -0.57116735 1.6793423
7.6572018 -0.5868541 1.6733363
7.5646267 -0.60178947 1.6670082
7.5311766 -0.61991918 1.6647209
7.4400439 -0.63411665 1.6584914
7.3637285 -0.64883053 1.6532744
7.3744793 -0.6692673 1.6540082
7.5929322 -0.70494163 1.6689372
7.7614908 -0.73800349 1.6804562
7.8134589 -0.76282203 1.6840067
7.7480502 -0.77839828 1.6795353
7.6689734 -0.79247987 1.6741297
7.5695314 -0.80437815 1.6673323
7.598352 -0.82717574 1.6693009
7.7536588 -0.86173797 1.679914
7.771544 -0.88414848 1.6811354
7.7820816 -0.90594077 1.6818542
7.6443472 -0.91299021 1.6724401
7.4993029 -0.91855419 1.6625262
7.3763556 -0.92566645 1.6541224
7.0019083 -0.90500271 1.6285305
6.9162731 -0.91425157 1.622677
6.843308 -0.92447639 1.6176894
6.7918692 -0.93680501 1.6141729
6.7749038 -0.9529444 1.6130126
5.3877001 -0.91811228 1.5182006
5.4254632 -0.937994 1.5207808
5.4295516 -0.95309663 1.5210593
5.4336452 -0.96822178 1.5213385
5.383924 -0.97512126 1.5179394
5.2277765 -0.96516013 1.5072676
5.1472898 -0.96636415 1.5017664
5.0928893 -0.97134507 1.4980478
5.0466657 -0.97737575 1.4948882
5.0116787 -0.98503149 1.4924965
4.9440961 -0.98698223 1.4878771
