# .PCD v0.7 - Point Cloud Data file format
VERSION 0.7
FIELDS x y z
SIZE 4 4 4
TYPE F F F
COUNT 1 1 1
WIDTH 1491
HEIGHT 1
VIEWPOINT 0 0 0 1 0 0 0
POINTS 1491
DATA ascii
11.616356 0.67330384 -0.3392092
11.705331 0.64725733 -0.3506124
11.849972 0.62435675 -0.36915171
12.245526 0.61635947 -0.41985798
12.380891 0.59061158 -0.43720806
12.526762 0.56471515 -0.45590508
12.368423 0.52149665 -0.43560302
12.412388 0.48957756 -0.44123542
12.32485 0.45100304 -0.43000972
12.281557 0.41494784 -0.42445636
12.195848 0.37729821 -0.41346526
11.945703 0.33346751 -0.38139403
11.705614 0.29139879 -0.3506124
11.663774 0.25758505 -0.3452456
11.738437 0.22775179 -0.35481346
11.43801 0.18647212 -0.31629694
11.639798 0.16023874 -0.34216201
11.427135 0.12298906 -0.31489646
11.455706 0.092011303 -0.31855571
11.764915 0.066028893 -0.35819125
11.948857 0.036383525 -0.38176811
12.281881 0.0076350272 -0.42445636
12.469751 -0.02441591 -0.44853652
12.409678 -0.059316963 -0.44083202
11.93924 -0.095750436 -0.38052201
11.774508 -0.12903932 -0.35940111
11.544826 -0.16135366 -0.32995427
11.621645 -0.19354683 -0.33979881
11.784988 -0.22672778 -0.36073458
11.905474 -0.26041394 -0.37617648
12.028448 -0.29479587 -0.39193749
12.175164 -0.33020875 -0.41074145
12.369132 -0.36726236 -0.43560302
12.369159 -0.40144536 -0.43560302
12.135978 -0.43024325 -0.40570796
12.024441 -0.4608973 -0.39140666
12.175298 -0.49844408 -0.41074145
12.246441 -0.53432298 -0.41985786
12.303965 -0.57012987 -0.42722833
11.990439 -0.69196367 -0.38702428
12.085253 -0.72964561 -0.39917469
12.133236 -0.76547611 -0.40532219
12.133263 -0.79900634 -0.40532219
11.940792 -0.82170796 -0.38064671
11.726158 -0.84203768 -0.35313022
3.3033712 -1.1480962 0.72663575
3.2630315 -1.1449212 0.7318067
3.2522812 -1.150627 0.73318535
3.2562995 -1.1608579 0.73267132
3.2402062 -1.1648124 0.73473471
3.2129798 -1.1651602 0.73822498
3.1877205 -1.1659845 0.74146307
2.9061913 -1.1404752 0.77755028
2.9009714 -1.1467088 0.77822006
2.8981714 -1.1537519 0.77857971
2.8824711 -1.156276 0.78059268
2.8312211 -1.1462046 0.78716147
2.8109517 -1.1468365 0.78975993
2.785357 -1.1454533 0.79304081
2.7429371 -1.137869 0.79847795
2.7306571 -1.1409883 0.80005246
2.7158108 -1.1431017 0.80195582
2.7092011 -1.1481674 0.8028037
2.7010319 -1.1526177 0.80385137
2.7001436 -1.1597457 0.80396599
2.6922266 -1.1642208 0.80498135
2.6652515 -1.1614201 0.80843902
2.6168354 -1.1502744 0.81464446
2.598738 -1.1505343 0.81696445
2.5818784 -1.1511743 0.81912577
2.5686026 -1.1531206 0.82082778
2.5592051 -1.1565187 0.82203281
2.5421486 -1.1568317 0.82421935
2.5234079 -1.1563786 0.82662177
2.5112839 -1.1584791 0.82817614
2.5001271 -1.1609038 0.82960665
2.4800704 -1.1596437 0.83217764
2.4721882 -1.1632625 0.83318841
2.4589901 -1.1646442 0.83488041
2.4310501 -1.1598295 0.83846164
2.4044576 -1.1554239 0.84187013
2.3846998 -1.153748 0.84440279
2.3748298 -1.1561524 0.84566826
2.3657651 -1.1588455 0.84683061
2.3585865 -1.1622982 0.84775114
2.3459282 -1.163344 0.84937394
2.3235075 -1.160076 0.85224777
2.3097312 -1.1604661 0.8540138
2.2940364 -1.1599352 0.8560257
2.280571 -1.1603054 0.85775191
2.2672627 -1.1606711 0.85945797
2.2553556 -1.1615918 0.86098444
2.2423394 -1.1619462 0.86265308
2.2321167 -1.163497 0.86396372
2.2264347 -1.1670656 0.86469245
2.2179632 -1.1693208 0.86577868
2.2113864 -1.1724054 0.86662209
2.1946311 -1.1707194 0.86876976
2.1805549 -1.1701941 0.87057424
2.1738439 -1.1730576 0.87143481
2.0653484 -1.1676248 0.88534248
2.0631995 -1.1722635 0.88561845
1.9816558 -1.1537492 0.89606982
1.9812859 -1.1590329 0.89611781
1.9816645 -1.1646979 0.89606982
1.9861726 -1.1724908 0.89549273
1.9856935 -1.1777273 0.89555466
1.9850535 -1.1828775 0.89563721
1.9805591 -1.186008 0.89621365
1.9731108 -1.1875602 0.89716864
1.9711548 -1.1919745 0.89741987
1.9641972 -1.1937203 0.89831197
1.9610533 -1.1974647 0.89871538
1.9578412 -1.2011552 0.89912748
1.9583938 -1.2068595 0.89905727
1.9573017 -1.2116746 0.89919776
1.9538678 -1.2152072 0.8996383
1.9429604 -1.2146256 0.9010365
1.9331923 -1.2146112 0.90228868
1.9260448 -1.2159933 0.90320504
1.9239291 -1.2201346 0.90347672
1.9239333 -1.2254492 0.90347672
1.924997 -1.231359 0.90334094
1.9292507 -1.2390754 0.90279645
1.9303201 -1.2450091 0.90265995
1.9324586 -1.2515578 0.90238655
1.9335318 -1.2575082 0.90224952
3.5818279 -2.2510843 0.69105244
3.5818357 -2.2609787 0.69105244
3.7673347 -2.6615336 0.66731375
3.767343 -2.6719396 0.66731375
3.7655482 -2.6811333 0.66754484
3.8059111 -2.7187712 0.6623745
3.814739 -2.735261 0.66124451
3.8382804 -2.7618108 0.65822935
3.8406985 -2.7740591 0.6579206
3.8278911 -2.775876 0.65956259
3.8449395 -2.7981851 0.65737945
3.8368702 -2.8032191 0.65841436
3.5993688 -2.6787307 0.68884748
3.620748 -2.7037458 0.6861093
3.6262283 -2.7176213 0.68540823
3.6343136 -2.7333789 0.68437338
3.6343217 -2.743417 0.68437338
3.6318128 -2.751652 0.68469584
3.6267977 -2.7580709 0.68533939
3.6343458 -2.7735314 0.68437338
2.7487319 -2.2783921 0.79785156
1.9267491 0.77540255 0.89754319
1.9196904 0.76670051 0.89846867
1.9036448 0.75377095 0.90057158
1.9015096 0.74749589 0.90085196
1.8982316 0.74069631 0.90128201
1.8931385 0.73306823 0.90194988
1.8847071 0.72392058 0.90305519
1.8743683 0.71394014 0.90441036
1.8594772 0.70193148 0.906362
1.8499724 0.69245815 0.90760791
1.8471055 0.68604183 0.90798402
1.8474448 0.68108368 0.90794015
1.858865 0.68107796 0.90644431
1.8588063 0.67590857 0.90645254
1.8584336 0.67060089 0.90650195
1.8526847 0.66293657 0.90725571
1.8497909 0.65654862 0.90763539
1.8474412 0.65041256 0.90794384
1.8501211 0.64645481 0.90759319
1.8447999 0.63905978 0.90829092
1.8502307 0.63626361 0.9075799
1.8493387 0.63076782 0.90769732
1.862479 0.63116241 0.90597618
1.8604037 0.62514472 0.90624869
1.858922 0.61938417 0.90644336
1.85385 0.61215591 0.90710837
1.8507656 0.60576737 0.90751302
1.8492992 0.60005212 0.90770566
1.8533702 0.5965755 0.90717286
1.8657969 0.59641922 0.90554523
1.892754 0.60196686 0.9020139
1.9022845 0.60049033 0.90076578
1.9113636 0.59878421 0.89957678
1.9159628 0.59528518 0.89897478
1.9160923 0.59003448 0.89895833
1.9172237 0.58516729 0.89881074
1.9058657 0.57553935 0.90029931
1.9039696 0.56954992 0.90054834
1.9129349 0.56764591 0.89937425
1.9249923 0.56684375 0.89779508
1.9336776 0.56472838 0.89665776
1.9360303 0.56024194 0.89635003
1.9340428 0.55416238 0.89661098
1.9326199 0.54829764 0.89679801
3.6627111 0.93024135 0.67015564
3.7146723 0.93529069 0.66334939
8.367135 2.0168357 0.053870082
8.5866203 2.0499249 0.025118947
8.6250181 2.0359054 0.020091176
8.7297688 2.0383067 0.0063709021
8.7297888 2.0141649 0.0063709021
8.6863756 1.9793762 0.012060642
8.6008139 1.9346122 0.023272038
8.516923 1.8907217 0.034264326
8.4346523 1.8476793 0.045044422
8.3941193 1.8148618 0.050356746
8.3941374 1.7916486 0.050356746
8.4143829 1.7730581 0.047707081
8.4859705 1.7659475 0.038331509
8.5483093 1.7563787 0.03016746
8.6115704 1.7466682 0.021882653
8.6496811 1.7311378 0.016892672
8.5798702 1.6922249 0.026040316
8.5588608 1.6640412 0.028795123
8.5498981 1.6384941 0.0299716
8.7114096 1.6481853 0.0088163614
8.8182783 1.6458554 -0.0051808357
8.7823906 1.6142565 -0.00047707558
8.7551489 1.5845692 0.0030943155
8.714591 1.5524315 0.0084096193
8.8183565 1.5483129 -0.0051808357
8.9562302 1.5500952 -0.023239374
9.0234737 1.5379031 -0.032045484
9.2220745 1.549547 -0.058058977
9.2395229 1.5272088 -0.060341954
9.2140036 1.4970933 -0.056996226
9.2383995 1.4759037 -0.060189366
9.1348505 1.4324158 -0.046622276
9.0570269 1.3938857 -0.036425114
9.1110582 1.3778982 -0.043500304
9.0671444 1.3454576 -0.037745237
9.1588898 1.3352592 -0.049760699
9.3041592 1.3330853 -0.068787456
9.4785509 1.3346696 -0.091629148
9.7236433 1.3461678 -0.12373161
9.9573488 1.3545902 -0.15434265
10.23246 1.3678617 -0.19037735
10.446752 1.3707585 -0.21844494
10.712293 1.3797888 -0.2532258
10.937587 1.3817141 -0.28273427
11.198149 1.387235 -0.3168627
11.640769 1.4158034 -0.37483871
11.679726 1.3887434 -0.37993848
11.618689 1.3485709 -0.37193978
11.656705 1.3212379 -0.37691617
11.677943 1.2916237 -0.37969482
11.8382 1.2786694 -0.40068352
12.113944 1.2784467 -0.43679941
12.241357 1.2596188 -0.45348585
12.120003 1.2121278 -0.43758631
11.672495 1.1295549 -0.3789643
11.412769 1.0695226 -0.34493983
11.338686 1.0302507 -0.33523262
11.338711 0.99889779 -0.33523262
11.412845 0.97484899 -0.34493983
11.466402 0.94841921 -0.35195172
11.553129 0.9247793 -0.36330879
11.648945 0.90147996 -0.37585592
11.608038 0.86568797 -0.37049437
11.45039 0.82023036 -0.34984124
11.265731 0.77343082 -0.32565045
11.114658 0.73031282 -0.30585873
11.140007 0.70151567 -0.30917573
11.198716 0.67503619 -0.3168627
11.165496 0.64171374 -0.31250799
11.099616 0.60634971 -0.30387568
11.214201 0.58314824 -0.31888127
11.798754 0.58873856 -0.39544475
12.031037 0.57001448 -0.42586684
12.257267 0.54966033 -0.4554956
12.034051 0.5036428 -0.42625451
12.086633 0.47307768 -0.43313837
11.963855 0.43366686 -0.41705322
11.953853 0.40012512 -0.41573954
11.867665 0.36334345 -0.40444744
11.507387 0.3159405 -0.35725391
11.247986 0.27433574 -0.32327414
11.029446 0.23559406 -0.29464614
11.262718 0.21260735 -0.3251971
11.375539 0.18478596 -0.33997118
11.46396 0.15569007 -0.35154939
11.438443 0.12338218 -0.34820378
11.422436 0.091416582 -0.34610391
11.276694 0.057156354 -0.32701147
11.328475 0.026784629 -0.33379066
11.876601 0.0024999231 -0.40558016
12.404923 -0.025015227 -0.4747752
12.448112 -0.058998369 -0.48042858
12.015797 -0.095381603 -0.4238013
11.227842 -0.16105123 -0.32059026
11.206253 -0.19201404 -0.31775928
11.321305 -0.22374743 -0.3328253
11.432506 -0.25608116 -0.34738648
11.686647 -0.29075119 -0.38066971
11.832111 -0.32521701 -0.39971852
12.031779 -0.36143968 -0.42586684
11.996383 -0.39398545 -0.42122746
11.791427 -0.422418 -0.39437973
11.542221 -0.44857246 -0.36173689
12.079602 -0.69625235 -0.43209541
12.127563 -0.73195028 -0.43837368
12.127589 -0.76548064 -0.43837368
12.127616 -0.79901087 -0.43837368
11.941064 -0.82204044 -0.41393697
11.880165 -0.8514576 -0.40595782
3.2746449 -1.148928 0.72120035
3.267534 -1.1557889 0.72213238
3.2477243 -1.1586664 0.72472733
3.2293179 -1.1618742 0.72713846
3.2113442 -1.1651169 0.7294929
3.1967309 -1.1693317 0.7314074
2.9242911 -1.1471089 0.76708847
2.9190035 -1.1533722 0.76778167
2.9125209 -1.1591921 0.7686314
2.8956289 -1.1613408 0.77084404
2.8491917 -1.1529953 0.77692544
2.8291464 -1.1537566 0.77955097
2.7989314 -1.150771 0.78350812
2.763659 -1.1457963 0.78812754
2.7490222 -1.1481187 0.79004484
2.7215962 -1.1456815 0.79363674
2.7100413 -1.1489426 0.79515052
2.6994276 -1.1524895 0.79654109
2.692894 -1.1575044 0.79739726
2.6838861 -1.1615504 0.79857755
2.6518788 -1.1568148 0.8027693
2.6109266 -1.1484815 0.80813229
2.5933971 -1.1489438 0.81042826
2.5791802 -1.1505945 0.81229049
2.562073 -1.1510372 0.81453121
2.549614 -1.1532141 0.8161633
2.5338576 -1.154016 0.81822705
2.5228412 -1.1566218 0.81967032
2.5134692 -1.1598275 0.82089812
2.505749 -1.1636494 0.82190973
2.4748192 -1.1579757 0.82596022
2.4547393 -1.15658 0.82859004
2.4375486 -1.1562659 0.83084166
2.4200606 -1.1557333 0.83313209
2.4005084 -1.1542406 0.83569282
2.3826616 -1.1533579 0.83803022
2.3737249 -1.1561532 0.83920109
2.3662658 -1.1595296 0.84017837
2.3590813 -1.1629827 0.84111977
2.3482137 -1.1648043 0.84254336
2.3298013 -1.1632844 0.84495479
2.3048856 -1.1588162 0.84821773
2.2876072 -1.1575744 0.85048068
2.2735763 -1.1576765 0.85231841
2.2628534 -1.1591758 0.85372305
2.2528529 -1.1609404 0.85503304
2.2412963 -1.161947 0.85654682
2.2291803 -1.1626357 0.85813379
2.2213562 -1.1652189 0.85915887
2.2141216 -1.1680298 0.86010671
2.2066352 -1.1706842 0.8610875
2.1950543 -1.1713921 0.86260444
2.1795404 -1.170195 0.8646363
2.1716747 -1.1725132 0.86566675
2.1607435 -1.1733363 0.86709857
2.1585233 -1.1782484 0.86738986
2.0601275 -1.1655257 0.88027614
2.0562522 -1.1692963 0.88078409
2.0313904 -1.1625842 0.88403976
2.0219903 -1.1634848 0.88527107
2.0087094 -1.1623775 0.8870104
1.9833574 -1.1550795 0.8903302
1.9811126 -1.1594151 0.89062464
1.9779394 -1.1632627 0.89104068
1.980747 -1.1701729 0.8906737
1.9780281 -1.1742373 0.89103019
1.9751571 -1.1782073 0.89140666
1.9718175 -1.1819161 0.89184445
1.9666426 -1.1846409 0.89252251
1.965804 -1.1896304 0.8926329
1.9599797 -1.1919646 0.89339602
1.9579443 -1.1962916 0.89366305
1.9531798 -1.1991413 0.89428735
1.9512364 -1.2034876 0.89454234
1.9501516 -1.2082895 0.89468491
1.9465863 -1.211732 0.89515233
1.9391826 -1.2130507 0.8961221
1.9292446 -1.2129323 0.89742374
1.9230299 -1.2148207 0.89823794
1.9209197 -1.2189587 0.89851475
1.9219806 -1.2248584 0.89837646
1.9251616 -1.2319555 0.89796054
1.929418 -1.2396774 0.89740384
1.9304883 -1.2456148 0.89726424
1.932628 -1.2521678 0.8969847
1.9326323 -1.2575089 0.8969847
3.5875049 -2.2454855 0.68033713
3.5850589 -2.2539601 0.6806584
3.5850668 -2.2638679 0.6806584
3.5899858 -2.2766848 0.6800155
3.9131353 -2.7167163 0.63773614
3.781884 -2.6724074 0.65492249
3.7818923 -2.6828582 0.65492249
3.7805367 -2.6923921 0.65510106
3.8082867 -2.7215722 0.65146947
3.8268836 -2.7446995 0.64903611
3.8515973 -2.7720935 0.64580202
3.8516059 -2.782737 0.64580202
3.8485839 -2.7913013 0.64619869
3.8528357 -2.8048601 0.64564323
3.8477535 -2.8119848 0.64630961
3.6136384 -2.6899385 0.67696065
3.6278303 -2.709933 0.6751039
3.628305 -2.7202885 0.67504281
3.6326232 -2.7333803 0.67447853
3.6326313 -2.7434185 0.67447853
3.6326392 -2.7534566 0.67447853
3.6301315 -2.7616847 0.67480791
3.6351745 -2.7753525 0.67414874
3.6402311 -2.7890577 0.6734879
3.6251347 -2.7881246 0.67546511
3.6151423 -2.7908366 0.6767742
3.6002526 -2.7899024 0.67872429
1.9165437 0.77092934 0.89353561
1.9098352 0.76241875 0.89443386
1.8924395 0.74886918 0.89676225
1.8937151 0.74423277 0.89659208
1.8922133 0.73828554 0.8967936
1.8874804 0.73083854 0.8974275
1.8839424 0.7239722 0.89790154
1.876902 0.71551049 0.89884412
1.8633729 0.70411348 0.90065509
1.8557464 0.6954807 0.90167618
1.864248 0.69419336 0.9005391
1.8681625 0.69079471 0.90001583
1.8674052 0.6852845 0.90011775
1.8619765 0.67770207 0.90084469
1.8607043 0.67198575 0.90101546
1.8572423 0.66531539 0.90147924
1.8544972 0.65897679 0.90184718
1.8524621 0.65296113 0.90211999
1.8600036 0.65108144 0.90111142
1.8619301 0.64675725 0.90085423
1.8610831 0.64124322 0.90096807
1.8528155 0.63259947 0.90207493
1.8606191 0.63074517 0.90103126
1.8588297 0.6248492 0.90127122
1.8592582 0.61988127 0.90121448
1.8538302 0.61250222 0.9019413
1.8508847 0.60616744 0.902336
1.8484379 0.6000514 0.90266395
1.8526474 0.59663141 0.90210128
1.8674942 0.59744561 0.90011513
1.8890439 0.600842 0.89723217
1.8974849 0.5989449 0.89610332
1.90459 0.59647763 0.89515316
1.9029871 0.59058201 0.89536822
1.9044182 0.58586776 0.89517725
1.9053136 0.58094001 0.89505804
1.8966957 0.57238412 0.89621174
1.8918819 0.56531429 0.89685637
1.8989786 0.5627414 0.89590734
1.911863 0.56228542 0.89418393
1.9267304 0.56249166 0.89219517
1.9334949 0.5596416 0.89129061
1.9356439 0.5550729 0.89100361
1.9335034 0.54894173 0.89129061
1.9324372 0.54320765 0.89143384
1.9303038 0.53709984 0.89171988
3.6893852 0.93861401 0.65637374
3.7208593 0.93760335 0.65216374
8.2969694 1.999663 0.039927602
8.5769958 2.0484798 0.0024646521
8.61796 2.035131 -0.0030133724
8.7257042 2.0383034 -0.017426133
8.7257233 2.0141616 -0.017426133
8.6823311 1.9793729 -0.011618018
8.5968084 1.9346091 -0.00017333031
8.5129566 1.8907186 0.011047721
8.4307241 1.8476762 0.022052169
8.3902102 1.8148587 0.027474999
8.3902283 1.7916455 0.027474999
8.4307804 1.7777001 0.022052169
8.4820185 1.7659444 0.015199542
8.5713062 1.7623944 0.0032564402
8.7088079 1.7689748 -0.015137315
8.7509365 1.7540425 -0.020770907
8.7041931 1.7197862 -0.014514685
8.6395769 1.6819988 -0.005867362
8.5879698 1.647292 0.001039505
8.7510138 1.6571987 -0.020770907
8.8589134 1.6549681 -0.035204053
8.8226795 1.6231724 -0.030353785
8.7951736 1.5933075 -0.026671171
8.7323256 1.5566874 -0.018260598
8.8525724 1.5556936 -0.034345269
8.8934069 1.5389532 -0.03980577
8.9042311 1.5163704 -0.041251183
8.9740181 1.5045996 -0.050585032
9.1078472 1.504073 -0.068486571
9.0830374 1.4744347 -0.065164685
9.1476688 1.4606824 -0.07380867
9.0999918 1.4271083 -0.067427635
9.0461054 1.3927392 -0.060215831
9.1068153 1.3778948 -0.068335056
9.0629225 1.3454542 -0.062460303
9.1136484 1.3286079 -0.069243908
9.1375265 1.3071991 -0.072435617
9.2447233 1.298715 -0.086773753
9.4741583 1.3084556 -0.11746538
9.8682985 1.3418254 -0.17019105
10.176577 1.3602718 -0.21142972
10.473218 1.3753176 -0.25111139
10.740251 1.3844918 -0.28683197
10.966842 1.3865225 -0.31714237
11.270376 1.3978666 -0.35774565
11.752876 1.4316152 -0.42229092
11.792608 1.4043345 -0.42760265
11.719108 1.3622227 -0.41776645
11.215296 1.2661812 -0.35036385
11.131302 1.2247781 -0.33912396
11.55842 1.2455503 -0.39625967
11.781366 1.2398729 -0.4260813
12.106615 1.244748 -0.46958899
12.018172 1.2013081 -0.45775378
11.605053 1.12275 -0.4024843
11.333381 1.0615995 -0.36613774
11.301952 1.0269711 -0.36193001
11.37776 1.0033875 -0.37206781
11.338715 0.96805918 -0.3668412
11.354547 0.93820667 -0.36895573
11.35457 0.90679538 -0.36895573
11.370448 0.87681544 -0.37107623
11.407631 0.84861338 -0.37604702
11.296902 0.80766666 -0.36123109
11.224278 0.77045751 -0.35151255
11.144952 0.73311925 -0.34089756
11.20631 0.70697868 -0.34910238
11.224352 0.67730594 -0.35151255
10.961706 0.62762165 -0.31637442
10.730782 0.5815531 -0.2854799
10.749688 0.55310333 -0.28800595
11.086946 0.54449058 -0.33311844
11.599742 0.54452217 -0.4017123
11.807963 0.52432299 -0.42956293
11.620281 0.48145816 -0.40445304
11.101596 0.4225606 -0.33506501
11.117333 0.39261714 -0.33716691
11.186916 0.3650659 -0.34647167
11.176707 0.3336767 -0.34510267
11.168217 0.30241385 -0.34396374
10.967735 0.26395181 -0.31714237
10.957924 0.23326802 -0.31582654
11.123384 0.20828423 -0.33795667
11.183651 0.17928776 -0.3460151
11.188796 0.14848754 -0.34670019
11.08226 0.1149886 -0.33244574
11.012365 0.082853943 -0.32309282
10.875164 0.04986912 -0.3047365
10.873574 0.019760758 -0.30452073
11.163361 -0.006595701 -0.34328115
11.761314 -0.031449012 -0.42326379
11.839489 -0.063411765 -0.43371737
11.599729 -0.097252607 -0.4016422
10.819157 -0.16065794 -0.29722238
10.730499 -0.19025309 -0.28535998
10.892345 -0.22099027 -0.30700612
10.938688 -0.25155041 -0.3132019
10.920789 -0.2815927 -0.31080425
10.963275 -0.3124305 -0.31648409
11.024298 -0.3438291 -0.32464349
10.978098 -0.3733834 -0.31846046
10.899776 -0.40193948 -0.30798066
10.964355 -0.43376046 -0.31661558
12.121889 -0.69842458 -0.47142506
12.121916 -0.73195481 -0.47142506
12.121943 -0.76548505 -0.47142506
12.121969 -0.79901528 -0.47142506
11.955941 -0.82319558 -0.44921374
11.901623 -0.85305619 -0.4419446
3.2192769 -1.1502984 0.71948028
3.209028 -1.1559861 0.72085178
3.2006032 -1.1621939 0.72197938
3.1875601 -1.166882 0.7237246
2.9196713 -1.1459984 0.75955653
2.9180512 -1.1535131 0.75977397
2.9148099 -1.1604569 0.76020837
2.9035637 -1.1645856 0.76171315
2.8681378 -1.1601361 0.76645142
2.848923 -1.1612449 0.76902181
2.8126507 -1.1561458 0.77387321
2.7872562 -1.1547674 0.77726996
2.7758255 -1.1583209 0.77879936
2.7424054 -1.1537626 0.78326929
2.7267368 -1.1555659 0.78536546
2.7065361 -1.1555986 0.78806758
2.6916406 -1.1575054 0.79006022
2.6764686 -1.1592256 0.79208994
2.6435189 -1.1541091 0.79649687
2.6167889 -1.1511903 0.80007213
2.5907245 -1.1483802 0.80355829
2.5749927 -1.149436 0.80566281
2.5552588 -1.1488407 0.8083024
2.5410097 -1.1502953 0.81020862
2.527441 -1.1519407 0.81202382
2.5240974 -1.1575929 0.81247169
2.5164375 -1.1614918 0.81349671
2.5027876 -1.1629238 0.8153227
2.4706674 -1.156754 0.81961864
2.4543006 -1.1568695 0.82180798
2.4292195 -1.1532954 0.82516253
2.4105854 -1.1522632 0.82765502
2.3897738 -1.1502163 0.83043867
2.3744586 -1.1503699 0.83248734
2.3659604 -1.1533301 0.83362436
2.3619652 -1.1581649 0.83415931
2.3563919 -1.1622999 0.83490527
2.3486996 -1.1654876 0.83593458
2.3385935 -1.167583 0.83728659
2.31253 -1.1626345 0.84077251
2.2855449 -1.1571357 0.84438157
2.268301 -1.1558071 0.84668803
2.2559557 -1.1565689 0.8483395
2.2467341 -1.1586649 0.84957325
2.23595 -1.1600041 0.85101593
2.2224708 -1.1600586 0.85281897
2.2146902 -1.1626444 0.85386002
2.2067978 -1.1651357 0.85491598
2.2012389 -1.1686631 0.85565996
2.1924582 -1.1706601 0.85683471
2.1736188 -1.1678978 0.8593545
2.1665599 -1.1705809 0.86029899
2.1540918 -1.1706617 0.86196679
2.1506014 -1.1749525 0.86243415
2.0591688 -1.1655264 0.87466365
2.0533617 -1.1683382 0.87544072
2.0293965 -1.162062 0.87864578
2.0183794 -1.1621466 0.88011944
2.0052493 -1.161105 0.88187569
1.9886431 -1.158228 0.88409674
1.9854441 -1.1620938 0.88452506
1.9790728 -1.1643161 0.88537753
1.9798251 -1.1701738 0.88527751
1.9738616 -1.1725564 0.8860755
1.9642446 -1.1730033 0.88736194
1.9635128 -1.1780491 0.88746035
1.9631491 -1.1832845 0.88750958
1.9626806 -1.1884625 0.88757282
1.9579691 -1.1913813 0.88820338
1.9548422 -1.195121 0.88862205
1.9506352 -1.198263 0.88918507
1.9481523 -1.2023132 0.88951766
1.9481566 -1.2076998 0.88951766
1.9435148 -1.2105511 0.89013886
1.9350584 -1.2112845 0.8912701
1.9244001 -1.2107577 0.89269578
1.9189667 -1.2130662 0.89342284
1.917917 -1.2177854 0.89356375
1.9210862 -1.2248591 0.89314055
1.9253265 -1.2325528 0.89257419
1.9306523 -1.240883 0.89186269
1.9327934 -1.2474345 0.89157695
1.933562 -1.2532146 0.89147472
1.9317329 -1.2575096 0.89171988
3.618005 -2.2342899 0.66625988
3.6260262 -2.2489316 0.66518855
3.5981417 -2.2427347 0.66891778
3.5889938 -2.2473326 0.67014199
3.5784955 -2.251087 0.67154664
3.5772815 -2.2602608 0.67171001
3.588315 -2.276686 0.67023587
3.8981841 -2.6650136 0.62882769
3.9040022 -2.6795552 0.62805092
3.9069221 -2.6922433 0.62766171
3.9025655 -2.7001922 0.62824535
3.8953202 -2.7062216 0.62921512
3.8722966 -2.7018132 0.63229442
3.8509581 -2.6983929 0.63514841
3.829854 -2.6950099 0.63797098
3.7924371 -2.6806252 0.64297456
3.7924454 -2.6911101 0.64297456
3.8007073 -2.7071481 0.64187109
3.8110831 -2.7246599 0.64048505
3.8298962 -2.7479525 0.63797098
3.8498051 -2.772095 0.63531047
3.8498135 -2.7827384 0.63531047
3.8489125 -2.7927577 0.63543206
3.8510427 -2.8048615 0.63514841
3.8513343 -2.8157043 0.6351105
3.8468184 -2.8232081 0.63571543
3.7569809 -2.7711596 0.64772695
3.709115 -2.7480135 0.6541273
3.6205144 -2.6959577 0.66597342
3.6299105 -2.7125945 0.66471833
3.6266165 -2.7202899 0.6651597
3.6271625 -2.7306988 0.66508782
3.6271706 -2.7407267 0.66508782
3.6271784 -2.7507544 0.66508782
3.6271865 -2.760782 0.66508782
3.6309648 -2.7735341 0.66458374
3.6309729 -2.7835722 0.66458374
3.6184433 -2.7844822 0.66625988
3.6134601 -2.790838 0.66692716
1.8874551 0.75737393 0.89215946
1.8847396 0.75084853 0.89253104
1.8799065 0.74333191 0.89319181
1.8771303 0.73681378 0.89357162
1.8791046 0.73254228 0.89330244
1.8767399 0.72623396 0.89362609
1.8817101 0.7233429 0.89294773
1.8777589 0.71630859 0.89348805
1.8755579 0.71009886 0.89378929
1.8691515 0.70198441 0.89466494
1.8688942 0.69669127 0.89470065
1.8719877 0.69290829 0.89427865
1.8691306 0.68644536 0.89466953
1.8672289 0.68042302 0.89492989
1.8633144 0.67352188 0.89546514
1.858355 0.66618335 0.8961432
1.8558872 0.65995979 0.89648086
1.8566673 0.65515852 0.89637482
1.8635632 0.65298808 0.89543343
1.8645445 0.64824724 0.89529991
1.8669211 0.64409459 0.89497584
1.8636521 0.63754296 0.89542294
1.8640586 0.6325525 0.89536798
1.8609371 0.62608862 0.89579493
1.8598783 0.62049627 0.89594012
1.854444 0.61310959 0.89668298
1.8510039 0.6065681 0.8971535
1.848066 0.60024941 0.89755535
1.8519244 0.59668732 0.89702886
1.8685285 0.59820759 0.89476132
1.8847629 0.59948885 0.89254427
1.8919351 0.59710181 0.8915652
1.8968259 0.5937804 0.89089763
1.8957994 0.58812797 0.89103842
1.8960978 0.58299363 0.89099824
1.8960652 0.57773042 0.89100325
1.8881158 0.56945086 0.89208972
1.880664 0.56140351 0.89310813
1.8775499 0.55502641 0.89353412
1.8815408 0.55131483 0.89298952
1.9150585 0.55850494 0.8884117
1.9226162 0.55597711 0.88737994
1.9322416 0.55416095 0.88606572
1.9301585 0.54805708 0.88635087
1.930824 0.54295123 0.88626057
1.9294044 0.53709912 0.88645506
1.9294087 0.53175795 0.88645506
3.6920025 0.93989265 0.64571923
3.7297289 0.94070292 0.64056748
8.2931032 1.9996599 0.017299771
8.573 2.0484767 -0.020926952
8.613945 2.0351279 -0.026516557
8.7216387 2.0383003 -0.041223049
8.7216578 2.0141585 -0.041223049
8.6567516 1.9740862 -0.032355547
8.5716906 1.929484 -0.020735145
8.4882879 1.8857499 -0.0093412399
8.426796 1.8476729 -0.00094008446
8.426815 1.8243476 -0.00094008446
8.447237 1.8057462 -0.00372684
8.4883623 1.7917676 -0.0093412399
8.4987202 1.7706084 -0.010753155
8.573328 1.7637341 -0.020940542
8.7557259 1.7802091 -0.045849919
8.7761974 1.7604257 -0.048643231
8.7669754 1.7341472 -0.047380924
8.6939621 1.6943873 -0.037406325
8.6478024 1.6606539 -0.031099319
8.8579788 1.6801378 -0.059802055
8.9686012 1.6781648 -0.074908137
8.9314489 1.645866 -0.069831014
8.891902 1.6132984 -0.064427257
8.8725386 1.5848962 -0.061779857
8.9342289 1.5722262 -0.070202827
8.9539022 1.5512311 -0.072887063
8.9380846 1.5234822 -0.070723891
8.9457426 1.5001518 -0.071767092
9.0018196 1.4855759 -0.07942307
8.9852791 1.457697 -0.077161431
9.0485516 1.4439694 -0.085800171
9.1343079 1.43379 -0.097509503
9.1093426 1.4042444 -0.094097137
9.1571808 1.3870575 -0.1006279
9.1059866 1.3532571 -0.093633294
9.0975266 1.3266766 -0.092475057
9.0975466 1.3014961 -0.092475057
9.179635 1.2891823 -0.10368347
9.4022989 1.2980645 -0.13409054
9.8823271 1.3446388 -0.19964564
10.197319 1.3640517 -0.2426616
10.468339 1.3753136 -0.27967191
10.637058 1.3704529 -0.30271089
10.768404 1.3594192 -0.32064569
10.981472 1.3588876 -0.3497411
11.476902 1.3951921 -0.41739857
11.498542 1.3662769 -0.42035055
11.396619 1.3212903 -0.40642774
11.126656 1.2556392 -0.36955547
11.140213 1.2265157 -0.37140369
11.182746 1.2008171 -0.37720919
11.337015 1.1880711 -0.39827394
11.370216 1.160517 -0.40280473
11.385386 1.1307508 -0.40487301
11.148811 1.073279 -0.37256134
11.131897 1.0406104 -0.37024796
11.099041 1.0063747 -0.36575758
11.172176 0.98307061 -0.37574208
11.13451 0.94843102 -0.37059474
11.221503 0.92595315 -0.3824718
11.275925 0.89996052 -0.38990033
11.249982 0.86640608 -0.38635409
11.008307 0.81410182 -0.35334635
10.976996 0.78097701 -0.34906721
11.021602 0.75425398 -0.35515535
10.953835 0.7183758 -0.34589779
11.041582 0.69477081 -0.35787737
11.031631 0.66347611 -0.35651529
10.655458 0.6062448 -0.30514061
10.520844 0.5675714 -0.28675401
10.518601 0.5383054 -0.28644466
10.650107 0.51743376 -0.30440009
10.671848 0.48925921 -0.30736589
10.737553 0.46347633 -0.31633544
10.675004 0.43035719 -0.3077904
10.681252 0.40113428 -0.30864048
10.728642 0.37388584 -0.3151089
10.945359 0.35417494 -0.34470069
10.840934 0.31936058 -0.33043706
10.790668 0.28731942 -0.32356942
10.731429 0.25521776 -0.31547654
10.672503 0.22345507 -0.30742645
10.87159 0.20033306 -0.33461022
10.878716 0.17045462 -0.33557999
10.903995 0.14102131 -0.33902884
10.670599 0.10526028 -0.30715358
10.50992 0.072329521 -0.28520846
10.336482 0.040053695 -0.2615211
10.321945 0.011219859 -0.25953281
10.420314 -0.016082361 -0.27296269
10.396681 -0.045159191 -0.26973236
10.374624 -0.074093565 -0.26671708
10.262764 -0.10331424 -0.25143874
10.495353 -0.16034767 -0.28319383
10.552508 -0.18960777 -0.2909956
10.605989 -0.21916009 -0.2982955
10.666221 -0.24907103 -0.30651724
10.550147 -0.27718973 -0.2906636
10.687604 -0.30842394 -0.30943072
10.730556 -0.33875644 -0.3152926
10.731926 -0.36848 -0.31547654
10.675662 -0.39687824 -0.3077904
10.63355 -0.42533129 -0.30203652
3.1953886 -1.1433395 0.71376103
3.1790967 -1.1470685 0.71598619
3.1726084 -1.1538092 0.71687293
3.1484118 -1.1548622 0.72017729
2.9110098 -1.1435074 0.75259447
2.9134459 -1.1523973 0.75226277
2.9110227 -1.1596152 0.75259447
2.9044538 -1.1653706 0.75349212
2.8810003 -1.16514 0.75669479
2.8636162 -1.1669352 0.75906885
2.835814 -1.1649055 0.76286519
2.8168576 -1.1659124 0.76545388
2.7954848 -1.1659361 0.76837248
2.7898161 -1.1715924 0.76914716
2.7691991 -1.1717019 0.77196252
2.7224579 -1.1619866 0.77834421
2.6973176 -1.1601018 0.78177708
2.6752224 -1.1592265 0.78479421
2.6462536 -1.1556172 0.78874964
2.6260657 -1.1552086 0.79150641
2.6022046 -1.1532722 0.79476452
2.5813684 -1.1523784 0.79760969
2.558718 -1.1506598 0.80070257
2.5493667 -1.1540534 0.8019799
2.5311491 -1.1538792 0.80446756
2.5239644 -1.1580101 0.80544913
2.5134542 -1.1607642 0.80688465
2.4952354 -1.1603386 0.80937248
2.4603157 -1.1530041 0.81414008
2.4372523 -1.1503421 0.81728929
2.4184403 -1.1493098 0.81985801
2.4014506 -1.1489311 0.82217801
2.3843486 -1.1484115 0.82451332
2.3733528 -1.1503708 0.82601511
2.3641722 -1.1530396 0.82726902
2.359725 -1.157679 0.82787681
2.3546138 -1.1620083 0.82857525
2.3497505 -1.1664164 0.82923985
2.3425469 -1.1697788 0.83022392
2.3158352 -1.1645548 0.83387101
2.2849793 -1.1573563 0.83808368
2.2678058 -1.156057 0.84042871
2.250958 -1.1548078 0.84272921
2.2422872 -1.1571385 0.8439135
2.2320507 -1.1587132 0.84531152
2.2198212 -1.1593255 0.84698159
2.2075922 -1.1598699 0.84865159
2.1997137 -1.1623492 0.84972775
2.1933014 -1.1654636 0.8506037
2.1841896 -1.1672852 0.85184813
2.1649067 -1.1642911 0.85448098
2.1596813 -1.1678153 0.85519493
2.1548295 -1.1714877 0.85585785
2.1508827 -1.1755646 0.85639727
2.1473212 -1.1798047 0.85688412
2.0582099 -1.1655272 0.86905116
2.0451906 -1.164759 0.87082887
2.0263579 -1.1610183 0.87340021
2.0147781 -1.160812 0.87498146
2.0016613 -1.1597666 0.87677252
1.9899833 -1.1593783 0.87836719
1.985272 -1.1624783 0.8790108
1.9572754 -1.1698493 0.88283473
1.9581947 -1.1757431 0.88270986
1.9572841 -1.1806782 0.88283473
1.9573668 -1.1861343 0.88282406
1.9548655 -1.1902157 0.88316607
1.9514353 -1.1937864 0.88363481
1.9473963 -1.1970108 0.88418674
1.943992 -1.2005558 0.88465202
1.9439963 -1.2059333 0.88465202
1.9404501 -1.2093728 0.8851366
1.9334686 -1.2109073 0.88609016
1.9235041 -1.2107584 0.88745081
1.9180732 -1.2130669 0.88819271
1.9159719 -1.2172 0.88848007
1.9191359 -1.2242689 0.88804877
1.9233696 -1.231957 0.8874715
1.9297533 -1.2408837 0.88660073
1.9329633 -1.2480428 0.88616318
1.9326618 -1.2532153 0.88620496
1.9299793 -1.2570205 0.88657165
3.6608167 -2.2599366 0.65032589
3.628356 -2.25126 0.65475762
3.5955257 -2.2421887 0.65923977
3.5825894 -2.2445667 0.66100651
3.5768292 -2.2510884 0.66179377
3.5785482 -2.2619925 0.66156024
3.8809683 -2.6550739 0.62030596
3.877146 -2.6633258 0.62082881
3.8619051 -2.6641226 0.62291014
3.8501503 -2.6671143 0.62451559
3.8555245 -2.6812868 0.62378329
3.8336585 -2.6775293 0.62676877
3.830863 -2.6862767 0.62715155
3.8224823 -2.6912959 0.62829649
3.8072064 -2.6916652 0.63038248
3.8072147 -2.7021961 0.63038248
3.8113794 -2.7155244 0.62981528
3.8155534 -2.7288821 0.62924677
3.8323152 -2.7508056 0.62696022
3.8480127 -2.7720964 0.62481898
3.8437843 -2.7798414 0.62539715
3.8450022 -2.7913041 0.62523216
3.8436 -2.8009658 0.62542468
3.7552319 -2.7711611 0.63748854
3.6835465 -2.731307 0.64727324
3.6389456 -2.7101116 0.65336144
3.6342635 -2.7168641 0.65400153
3.6292346 -2.7233446 0.65468895
3.6217132 -2.7280231 0.65571654
3.621721 -2.7380404 0.65571654
3.6217291 -2.7480578 0.65571654
3.6179838 -2.7553723 0.65622878
3.6217451 -2.7680924 0.65571654
3.6198754 -2.7767472 0.65597284
3.6067948 -2.7772257 0.65775901
1.8505176 0.7502861 0.89203393
1.8574703 0.74852169 0.89106536
1.8758034 0.75219226 0.88851023
1.8742708 0.74626184 0.88872445
1.8690525 0.73858774 0.88945246
1.8664837 0.73219454 0.88981116
1.8661644 0.7268728 0.88985622
1.8675394 0.72234416 0.88966513
1.8808328 0.72334218 0.88781261
1.8795813 0.71755326 0.88798761
1.8762208 0.71080351 0.88845664
1.861884 0.69906688 0.89045572
1.8687518 0.69702089 0.88949895
1.8714595 0.69306278 0.88912213
1.8699292 0.68719232 0.88933599
1.8680725 0.68118513 0.88959539
1.8628011 0.6736784 0.89033079
1.8546889 0.66495252 0.89146221
1.8528391 0.659006 0.89172059
1.8536876 0.65424049 0.89160287
1.8620123 0.65269327 0.89044303
1.8678114 0.6500181 0.88963521
1.8704638 0.64597178 0.88926601
1.8741882 0.64236403 0.88874751
1.8748786 0.6374613 0.88865185
1.8667088 0.62885797 0.88979125
1.8617055 0.62161243 0.89048922
1.8548121 0.61361635 0.89145064
1.8508775 0.60686862 0.89199972
1.8474491 0.60034811 0.89247817
1.8510611 0.5966866 0.89197528
1.8662293 0.59763479 0.88986152
1.8777968 0.59706628 0.88824964
1.8879812 0.59588742 0.88683057
1.8913138 0.59196413 0.88636667
1.8928581 0.58732581 0.88615197
1.8918352 0.58168614 0.88629514
1.8903009 0.57585561 0.8865096
1.8855588 0.56881094 0.88717115
1.8787701 0.56101787 0.88811803
1.8689013 0.55210543 0.88949424
1.8672168 0.54629958 0.88972962
1.875017 0.54401386 0.88864291
1.88209 0.54141772 0.88765758
1.9130073 0.54747593 0.88334864
1.920346 0.54483151 0.8823263
1.9238895 0.54078376 0.88183296
1.92607 0.5362308 0.88152963
1.9285092 0.53175724 0.88119018
1.9285134 0.52641618 0.88119018
3.7386491 0.94382012 0.62890488
8.4295063 2.0360327 -0.024878263
8.6056604 2.057878 -0.04942739
8.6358213 2.0416961 -0.053628564
8.7175732 2.0382969 -0.065020084
8.7175922 2.0141551 -0.065020084
8.6527166 1.9740828 -0.055975318
8.5676956 1.9294809 -0.044122934
8.4843311 1.8857468 -0.03250134
8.4432621 1.852507 -0.026774764
8.4637747 1.8339288 -0.029631138
8.5050802 1.8200535 -0.035385489
8.5467911 1.8060421 -0.041196108
8.5468092 1.7823737 -0.041196108
8.622304 1.7755607 -0.051715255
8.8228178 1.7959033 -0.079658985
8.848424 1.7770429 -0.083225012
8.7866526 1.7392535 -0.074612975
8.7663698 1.7106122 -0.071783423
8.7069778 1.6738907 -0.063503265
8.7980051 1.6685909 -0.076187134
8.9033871 1.6657145 -0.090871692
8.8893566 1.6382327 -0.088913321
8.8362808 1.6030825 -0.081513524
8.8347015 1.5783001 -0.081290603
8.9072552 1.5678238 -0.091399789
9.0503817 1.5703605 -0.11134446
9.0498428 1.5451936 -0.11126637
9.0342321 1.5172484 -0.10908806
9.0208988 1.4898036 -0.10722721
9.0042801 1.4618448 -0.10490823
9.1050568 1.4546678 -0.11895049
9.251153 1.4547944 -0.13930881
9.2640476 1.4313741 -0.14110303
9.2325325 1.4004248 -0.13670802
9.1529331 1.3617085 -0.12561166
9.0814457 1.3247504 -0.11564589
9.0578775 1.2958376 -0.11235857
9.1153975 1.2797743 -0.12037206
9.3314552 1.2878206 -0.15048015
9.8964081 1.3474629 -0.22921193
10.188313 1.3634161 -0.26988995
10.409914 1.3675045 -0.30077016
10.504003 1.3521303 -0.31387961
10.567687 1.3319714 -0.32275164
10.706758 1.3218231 -0.34212983
10.71932 1.293864 -0.3438772
10.878572 1.2851883 -0.36606765
10.996204 1.270255 -0.38245785
10.811172 1.2164168 -0.35666788
10.823977 1.1880604 -0.35844934
10.949421 1.1732453 -0.37592793
11.061072 1.1561071 -0.39148438
11.050368 1.1242415 -0.38998926
11.016198 1.0897944 -0.38522375
10.937252 1.0506215 -0.37421858
10.826407 1.0084726 -0.35876787
10.869126 0.98294461 -0.36471784
10.888056 0.95476627 -0.3673526
10.78514 0.91445756 -0.35300684
10.799478 0.88596666 -0.35500169
10.7995 0.85606301 -0.35500157
10.725978 0.81951165 -0.34475231
10.474419 0.76776814 -0.30969226
10.419942 0.73414052 -0.3020972
10.280384 0.69383121 -0.28264582
10.420834 0.67650294 -0.30221522
10.608022 0.66197443 -0.32829785
10.489107 0.62382698 -0.31172311
10.389857 0.58773446 -0.29788888
10.253154 0.54963589 -0.27883518
10.300764 0.52436125 -0.28546679
10.515233 0.50928462 -0.31535089
10.566075 0.48321453 -0.32243288
10.38976 0.44387862 -0.29785931
10.410672 0.41624656 -0.30077016
10.343064 0.38392934 -0.29134572
10.528953 0.36437067 -0.31724668
10.614429 0.33915541 -0.32915497
10.525216 0.30590016 -0.31671953
10.455372 0.27392435 -0.30698335
10.240499 0.23685673 -0.27703691
10.189234 0.20670685 -0.26988995
10.24102 0.18016326 -0.27710342
10.558562 0.16116497 -0.32135022
10.2578 0.1238986 -0.27943528
10.196619 0.094031751 -0.27090657
9.927331 0.060099512 -0.23337805
9.7476664 0.029307276 -0.20833874
9.7232847 0.0019364953 -0.20493805
9.9389439 -0.022212863 -0.23498714
9.9451351 -0.049669541 -0.23584676
9.9209089 -0.077383034 -0.23246801
9.8126993 -0.10534444 -0.21738601
10.111872 -0.159978 -0.25906909
10.191978 -0.18827617 -0.27022851
10.227988 -0.21673012 -0.27524352
10.232297 -0.24508874 -0.27584064
10.22889 -0.27337801 -0.27536285
10.336313 -0.30329198 -0.29032862
10.433516 -0.33362079 -0.30387008
10.505369 -0.36397141 -0.31387961
10.505392 -0.39305788 -0.31387961
10.49137 -0.42178053 -0.31192243
3.1671019 -1.1437708 0.70878065
3.1614959 -1.1507609 0.7095626
3.1148334 -1.1446098 0.71606427
3.0586605 -1.1351374 0.72389072
3.0409942 -1.137863 0.72635281
2.9040022 -1.1415787 0.74544287
2.9050832 -1.149987 0.74529314
2.9024043 -1.1570964 0.74566722
2.8975894 -1.163444 0.74633884
2.8891971 -1.1685038 0.74750888
2.8771195 -1.172208 0.74919224
2.8517044 -1.1710691 0.75273371
2.8292451 -1.1708567 0.75586331
2.8057389 -1.1701392 0.75913876
2.7907827 -1.1724237 0.7612232
2.7723527 -1.1733433 0.76379144
2.7412398 -1.169444 0.76812655
2.7080193 -1.1645831 0.77275527
2.6829848 -1.1626278 0.77624351
2.6684306 -1.1645185 0.77827179
2.6485918 -1.1643049 0.78103626
2.6120269 -1.1575297 0.78613079
2.6012092 -1.1605545 0.78763855
2.5830302 -1.1606396 0.79017174
2.5642321 -1.1603799 0.79279119
2.5428779 -1.1590019 0.79576671
2.5304999 -1.1610924 0.79749179
2.516814 -1.162588 0.79939908
2.4959846 -1.161114 0.80230147
2.4681582 -1.156671 0.80617851
2.4468558 -1.1547531 0.80914676
2.4313524 -1.1551142 0.81130713
2.4086175 -1.1523802 0.81447494
2.3921082 -1.1521285 0.81677544
2.3775008 -1.1525872 0.818811
2.3650732 -1.1538904 0.82054293
2.3548732 -1.1560767 0.8219645
2.346056 -1.1588008 0.82319343
2.3407774 -1.1630076 0.82392955
2.3336251 -1.1663693 0.8249265
2.3093936 -1.1622052 0.82830274
2.2805026 -1.1558522 0.83232784
2.2623398 -1.1541008 0.83485866
2.2443268 -1.1523156 0.83736849
2.2387774 -1.1560314 0.83814222
2.2315545 -1.1589599 0.839149
2.2166839 -1.1583694 0.84122121
2.2041516 -1.158767 0.84296757
2.191783 -1.1591703 0.84469116
2.1860986 -1.1626012 0.84548366
2.1773815 -1.1645879 0.84669858
2.1585431 -1.1617819 0.84932333
2.1546757 -1.1659304 0.84986275
2.1509488 -1.1701242 0.85038257
2.1468358 -1.174113 0.85095608
2.1463208 -1.1798055 0.8510285
2.0424829 -1.1638887 0.86549634
2.0254138 -1.161019 0.86787462
2.0138395 -1.160813 0.8694874
1.9961503 -1.1574565 0.87195206
1.9867911 -1.1582296 0.87325633
1.9832191 -1.1619036 0.87375444
1.9536252 -1.1684225 0.87787902
1.9554545 -1.1747857 0.87762487
1.9536338 -1.1792362 0.87787902
1.9536381 -1.1846431 0.87787902
1.9525491 -1.189468 0.87803131
1.9481926 -1.1925383 0.87863874
1.9443197 -1.1958445 0.87917876
1.9412333 -1.1995546 0.87960923
1.9430907 -1.205934 0.87935114
1.9395462 -1.2093735 0.87984544
1.9327209 -1.2109921 0.88079673
1.922608 -1.2107592 0.8822059
1.9171796 -1.2130677 0.88296258
1.9140289 -1.2166153 0.88340205
1.9161352 -1.2230898 0.88310921
1.9203576 -1.2307668 0.88252175
1.9276366 -1.2401956 0.88150847
1.9346337 -1.2495046 0.88053447
1.9334739 -1.2541941 0.88069654
1.9287959 -1.256858 0.88134873
3.6271603 -2.2415144 0.64479411
3.6136453 -2.2437174 0.64667767
3.5891564 -2.2394569 0.65008968
3.5809207 -2.2445681 0.65123791
3.5751631 -2.2510898 0.6520409
3.5768812 -2.2619939 0.65180266
3.8600807 -2.6320775 0.61238045
3.8791606 -2.6550753 0.60972428
3.8629465 -2.6552894 0.61198372
3.8341734 -2.6472337 0.61599225
3.8001196 -2.6355648 0.62073636
3.7817495 -2.6340091 0.62329602
3.775578 -2.6403985 0.62415665
3.8005807 -2.6674023 0.62067562
3.8030548 -2.6795597 0.62033224
3.8095872 -2.6944413 0.61942357
3.8137593 -2.7077758 0.61884373
3.8221221 -2.7239559 0.61768013
3.8200386 -2.7331178 0.61797148
3.8305302 -2.750807 0.61651146
3.8305385 -2.7614071 0.61651146
3.8221557 -2.7662635 0.61768013
3.8305554 -2.7826073 0.61651146
3.8207777 -2.7864547 0.61787438
3.6661744 -2.7203319 0.63941079
3.6499317 -2.7190385 0.64167404
3.6407824 -2.7226677 0.6429494
3.6351013 -2.7287073 0.64374161
3.6313269 -2.7360723 0.64426845
3.631335 -2.7461209 0.64426845
3.627568 -2.7534606 0.64479411
3.6173699 -2.7561455 0.64621556
3.6125631 -2.7626734 0.64688611
3.6032457 -2.7658999 0.64818478
3.6001561 -2.7736132 0.64861619
1.8535737 0.77274704 0.88642186
1.8516079 0.76663542 0.88670194
1.8457277 0.75860751 0.88753873
1.8415515 0.7514466 0.88813317
1.8463877 0.74869537 0.88744605
1.8523117 0.74644375 0.88660419
1.8647214 0.74728024 0.88484019
1.8687491 0.74403775 0.88426805
1.8678948 0.73845088 0.88439012
1.8648659 0.73184061 0.88482141
1.8642024 0.72635901 0.88491631
1.8626772 0.72047842 0.8851338
1.8736023 0.72039008 0.88358086
1.8746622 0.71568573 0.88343072
1.8725318 0.70951116 0.88373429
1.8617731 0.69941187 0.88526464
1.8602358 0.69355369 0.88548386
1.8622469 0.6893034 0.88519847
1.8625637 0.68428314 0.88515401
1.8632081 0.67940688 0.88506299
1.8619323 0.67367768 0.88524497
1.8574941 0.6665653 0.88587666
1.8556781 0.66062307 0.88613546
1.8584692 0.65669072 0.88573915
1.8598195 0.65212142 0.88554776
1.8650846 0.64922237 0.8847996
1.8701646 0.6462152 0.88407791
1.8810567 0.64563823 0.88252974
1.8790081 0.63956332 0.88282162
1.8659333 0.62889707 0.88468134
1.8586396 0.62070048 0.885719
1.8514845 0.6126014 0.88673699
1.8490328 0.60646629 0.88708615
1.8465874 0.6003474 0.88743442
1.8500576 0.59662938 0.88694161
1.860976 0.59587741 0.88538969
1.8702059 0.5943929 0.88407791
1.8837006 0.59454286 0.88215971
1.8863387 0.59035707 0.88178515
1.8899232 0.58652544 0.88127613
1.888903 0.58089221 0.88142174
1.887884 0.57526517 0.88156724
1.8829337 0.56814444 0.88227171
1.8722444 0.55887818 0.88379216
1.8603981 0.5492363 0.88547719
1.8551674 0.54212844 0.88622147
1.8567718 0.53758061 0.8859939
1.8636383 0.53495789 0.88501817
1.8775806 0.53487825 0.88303638
1.896364 0.53647363 0.88036627
1.9193612 0.53947866 0.87709701
1.9241089 0.53585124 0.87642258
1.9276098 0.53175652 0.87592542
1.927614 0.52641547 0.87592542
3.7476211 0.94695497 0.6171754
8.5356236 2.0645819 -0.063535094
8.635747 2.0666275 -0.077767253
8.6562948 2.0479136 -0.080685854
8.7135077 2.0382938 -0.08881712
8.7135267 2.0141521 -0.08881712
8.6486807 1.9740797 -0.079595208
8.5636997 1.9294776 -0.067510605
8.5010576 1.890709 -0.058602095
8.4803934 1.8622481 -0.05566144
8.5218801 1.8484775 -0.061557055
8.5848684 1.8394597 -0.070509315
8.5848866 1.8156747 -0.070509315
8.5428238 1.7823706 -0.064526558
8.5653353 1.7637278 -0.067724109
8.7085352 1.7715908 -0.088080049
8.7116642 1.7481408 -0.088522315
8.7166634 1.7250761 -0.08923018
8.904048 1.7407118 -0.1158675
8.8964911 1.7144552 -0.11479044
8.9750528 1.7060499 -0.12595642
8.9209261 1.6701369 -0.11825871
8.8690615 1.6349792 -0.1108824
8.7876263 1.5942396 -0.099302411
8.7797394 1.5683461 -0.098178506
8.8353968 1.5547572 -0.10608816
9.0495167 1.5709953 -0.13652575
9.1656876 1.567691 -0.15303826
9.2141657 1.5512447 -0.15992737
9.1297159 1.5103552 -0.14791882
9.082159 1.4765409 -0.141155
9.1127071 1.456762 -0.14549506
9.2591219 1.4569225 -0.16630685
9.2597284 1.4313706 -0.16639018
9.2038612 1.3963275 -0.158445
9.1486654 1.3617051 -0.15059531
9.0772104 1.3247471 -0.14043438
9.0772305 1.2995994 -0.14043438
9.1487255 1.285668 -0.15059531
9.3057613 1.2845269 -0.17291689
9.8280439 1.3378084 -0.2471621
10.074242 1.3471658 -0.28215849
10.252045 1.3451843 -0.3074317
10.31273 1.3254614 -0.31605566
10.343354 1.3011847 -0.32040584
10.409568 1.2816329 -0.32981551
10.409591 1.2527947 -0.32981551
10.571981 1.2453873 -0.35289752
10.873525 1.2550611 -0.39576113
10.825308 1.2188377 -0.38890326
10.752187 1.1798016 -0.37850511
10.648199 1.1374389 -0.36371922
10.595051 1.1016583 -0.35616052
10.558398 1.0680754 -0.35094678
10.619999 1.0457587 -0.35970032
10.551596 1.008823 -0.34997308
10.540224 0.97837198 -0.34835315
10.567637 0.95202863 -0.35224676
10.485015 0.91436386 -0.34049845
10.488193 0.88562882 -0.34094667
10.377025 0.84590232 -0.32514048
10.359112 0.81548357 -0.32259083
10.245117 0.77647531 -0.30638278
10.180009 0.74238431 -0.29712427
10.282784 0.72290587 -0.31173098
10.155037 0.68392742 -0.29356802
10.149107 0.65532327 -0.29272187
10.46813 0.65163648 -0.3380686
10.087933 0.59457386 -0.28401935
10.16016 0.57175744 -0.29428351
10.060348 0.53679609 -0.28009188
10.16726 0.51592791 -0.29528654
10.333772 0.49820587 -0.31895292
10.313413 0.46835718 -0.31605566
10.204176 0.43353888 -0.30052447
9.9586926 0.39191201 -0.26562583
10.082552 0.37072024 -0.28322923
10.301894 0.35350916 -0.31440532
10.428122 0.33078986 -0.33234525
10.363924 0.29911926 -0.32321632
10.296165 0.26766005 -0.31358123
10.116899 0.23236212 -0.28809595
10.100174 0.20375022 -0.2857151
10.07993 0.17511773 -0.28283453
10.075434 0.14706171 -0.28219223
9.8714323 0.11370128 -0.25319088
9.8119164 0.084930703 -0.24472773
9.4841585 0.050810426 -0.19813526
9.3260756 0.021628708 -0.17566144
9.3752346 -0.0034372956 -0.18264616
9.7531776 -0.02454643 -0.23636603
9.6707411 -0.052395828 -0.22464514
9.6405163 -0.079406053 -0.22034585
9.5248289 -0.10663779 -0.20389855
9.3712234 -0.13329607 -0.18206143
9.512989 -0.15939495 -0.20220935
9.4665928 -0.18557207 -0.19561148
9.8292799 -0.21416241 -0.2471621
9.8965368 -0.24201509 -0.25671899
9.8765326 -0.26918721 -0.25387239
10.138943 -0.30043882 -0.29116893
10.23781 -0.33026439 -0.30521882
3.1010756 -1.1406798 0.70931405
3.0541747 -1.1341525 0.71597993
3.0400479 -1.1380172 0.71798843
2.8946297 -1.1548682 0.73866057
2.8946362 -1.1628844 0.73866057
2.8898447 -1.1692083 0.73934239
2.8803034 -1.1738172 0.74069917
2.8612525 -1.1749669 0.74340725
2.8253078 -1.1699125 0.74851596
2.8083029 -1.1715486 0.75093329
2.7997735 -1.1761969 0.75214624
2.7850053 -1.1784941 0.75424564
2.75476 -1.174951 0.75854445
2.7229106 -1.1706389 0.76307118
2.6947606 -1.1675476 0.7670722
2.680366 -1.1695325 0.76911843
2.6607964 -1.1694548 0.77190018
2.6285212 -1.1643655 0.77648735
2.6110017 -1.1648329 0.77897763
2.6023784 -1.1686854 0.78020382
2.5867829 -1.1697419 0.78242075
2.5552616 -1.1643895 0.78690064
2.5385263 -1.1647735 0.78927958
2.5192757 -1.1640521 0.79201579
2.4948211 -1.1611149 0.79549158
2.476351 -1.1604844 0.79811692
2.4587717 -1.1601177 0.80061561
2.4520965 -1.1641635 0.80156493
2.422066 -1.158448 0.80583286
2.4060762 -1.1584508 0.80810577
2.3918769 -1.1591209 0.81012416
2.3791773 -1.1603489 0.81192946
2.3595092 -1.1585281 0.81472504
2.3433869 -1.1581239 0.8170166
2.3318636 -1.1596217 0.81865478
2.3240986 -1.162693 0.81975883
2.3118882 -1.1637719 0.82149458
2.2847733 -1.1582066 0.82534814
2.2686405 -1.1573677 0.82764125
2.249068 -1.1549021 0.83042312
2.2406092 -1.157325 0.8316257
2.2340527 -1.1605613 0.83255804
2.1871631 -1.1575135 0.83922279
2.1775753 -1.1591245 0.84058577
2.1684406 -1.1608936 0.84188443
2.1539838 -1.1601162 0.8439393
2.1501622 -1.1642759 0.84448296
2.1481805 -1.1692871 0.84476525
1.9880707 -1.1538475 0.86752206
1.9843585 -1.1574653 0.8680501
1.9817317 -1.1616167 0.868424
1.9549037 -1.169565 0.87223828
1.9567362 -1.1759365 0.87197858
1.9538172 -1.1798136 0.87239397
1.9516348 -1.184065 0.87270463
1.9483683 -1.1877266 0.8731693
1.9429454 -1.1902157 0.87394047
1.9406329 -1.1943488 0.8742696
1.9421809 -1.2005572 0.87405032
1.9451255 -1.2075335 0.87363255
1.9418806 -1.2111437 0.87409419
1.9330438 -1.2116648 0.87535036
1.921712 -1.2107599 0.87696099
1.9162861 -1.2130684 0.87773252
1.9131368 -1.216616 0.8781805
1.9162946 -1.2236801 0.87773252
1.9205196 -1.2313626 0.87713277
1.9288694 -1.2414023 0.87594706
1.9358788 -1.250726 0.87495178
1.9340019 -1.2550112 0.87521905
3.6029902 -2.218576 0.6380921
3.6301422 -2.2442107 0.63423556
3.6213372 -2.2491536 0.63548762
3.5930276 -2.2426872 0.63951099
3.5774162 -2.2434952 0.64173007
3.5698395 -2.2489405 0.64280772
3.5715532 -2.2598321 0.64256537
3.8328595 -2.6369369 0.60546499
3.8031948 -2.6282132 0.60968071
3.7465575 -2.6016748 0.61772829
3.7179852 -2.593266 0.62178868
3.7163763 -2.6024926 0.62201846
3.7518184 -2.6362631 0.61698443
3.7694452 -2.6583748 0.61448139
3.7902265 -2.6826918 0.61153024
3.8026314 -2.7015033 0.60976905
3.8130324 -2.719033 0.60829258
3.8119988 -2.7288847 0.60844064
3.8203578 -2.7451112 0.60725427
3.8066669 -2.7463441 0.60920054
3.7814417 -2.739603 0.61278534
3.7954407 -2.7596915 0.61079776
3.7640479 -2.7485216 0.61525875
3.6333835 -2.6985314 0.6338262
3.6364939 -2.7107751 0.63338542
3.6466949 -2.7280486 0.63193744
3.6442537 -2.7364063 0.63228536
3.6382883 -2.7422395 0.63313401
3.6334236 -2.7488267 0.6338262
