# .PCD v0.7 - Point Cloud Data file format
VERSION 0.7
FIELDS x y z
SIZE 4 4 4
TYPE F F F
COUNT 1 1 1
WIDTH 1544
HEIGHT 1
VIEWPOINT 0 0 0 1 0 0 0
POINTS 1544
DATA ascii
3.1849728 -0.55340552 2.0925877
3.1726253 -0.55998611 2.0889316
3.1660914 -0.56726944 2.0869961
3.1674309 -0.57557714 2.0873904
3.1768007 -0.58499116 2.0901616
3.1848769 -0.59427285 2.0925498
3.1902862 -0.60321707 2.0941486
3.1970718 -0.61238813 2.0961549
3.1943636 -0.62019646 2.0953515
3.196697 -0.62874603 2.09604
3.197489 -0.63707268 2.0962725
3.1982799 -0.64540315 2.0965047
3.1834373 -0.65127599 2.0921102
3.1688302 -0.65711021 2.0877855
3.1666451 -0.66488934 2.0871367
3.1727571 -0.67402744 2.0889437
3.1832159 -0.68392611 2.092037
3.208184 -0.69634926 2.0994239
3.2246928 -0.70743835 2.1043077
3.2408025 -0.7185421 2.1090732
3.2492361 -0.7283622 2.1115673
3.2378557 -0.73464775 2.108197
3.2465312 -0.74454784 2.1107626
3.2720702 -0.75762379 2.1183186
3.2735004 -0.76629221 2.1187398
3.2641735 -0.77291489 2.1159778
3.254698 -0.77946091 2.1131716
3.2492161 -0.78674102 2.1115472
3.3585382 -0.86850953 2.1438851
3.3489769 -0.87506008 2.1410537
3.3013673 -0.8732264 2.1269627
3.3265009 -0.88727057 2.1343982
3.3182168 -0.89395154 2.1319447
3.3137689 -0.90145981 2.1306264
3.2996569 -0.90672898 2.1264486
3.3066251 -0.91681409 2.1285086
3.3075457 -0.92551708 2.1287789
3.3245349 -0.93803346 2.1338043
3.3322546 -0.94841611 2.1360869
3.3392341 -0.95865917 2.1381502
3.3422079 -0.96795762 2.1390283
3.3392479 -0.97580373 2.1381502
3.3451939 -0.98586011 2.1399078
3.3481784 -0.9951992 2.1407888
3.3571494 -1.0060804 2.1434414
3.3601551 -1.015471 2.1443288
3.3646703 -1.0252696 2.145663
3.3697002 -1.0352268 2.1471496
3.3782094 -1.0461326 2.1496654
3.3760989 -1.0542376 2.1490388
3.3828526 -1.0647287 2.1510353
3.3971434 -1.112187 2.1552539
3.3940859 -1.1200318 2.1543469
3.3905237 -1.1277155 2.1532907
3.3968723 -1.1382642 2.1551676
3.3813944 -1.1424392 2.1505854
3.3798821 -1.1506697 2.150136
3.379889 -1.159346 2.150136
3.3829355 -1.1689377 2.1510353
3.3829422 -1.1776217 2.1510353
3.381429 -1.1858401 2.1505854
3.3753676 -1.1926459 2.1487899
3.3738611 -1.200839 2.1483419
2.8776023 -1.1718125 2.001467
2.8691225 -1.176164 1.9989562
2.8549442 -1.1784195 1.9947591
2.8466179 -1.182725 1.9922936
2.8349786 -1.1857773 1.988848
2.8198063 -1.18747 1.9843569
2.7985854 -1.186844 1.9780761
2.7869909 -1.1897 1.9746437
2.7676649 -1.1895926 1.9689238
2.7267854 -1.1812346 1.9568262
2.7268851 -1.1882697 1.9568541
2.7273238 -1.1954353 1.9569823
2.7279003 -1.2026563 1.9571512
2.7082067 -1.2020062 1.9513223
2.656774 -1.1888446 1.9361026
2.6277778 -1.1842494 1.9275212
2.5991671 -1.1796583 1.9190544
2.5620515 -1.1715293 1.9080708
2.5508394 -1.1736045 1.9047518
2.5291643 -1.1713963 1.8983369
2.5265002 -1.1768035 1.8975471
2.5232377 -1.181952 1.8965802
2.5240893 -1.1887771 1.8968308
2.525789 -1.1959575 1.8973321
2.5215619 -1.2006773 1.8960799
2.5131452 -1.2036188 1.8935881
2.5027606 -1.205687 1.8905139
2.4915187 -1.2073382 1.8871862
2.481663 -1.2095233 1.8842685
2.4751375 -1.2130882 1.8823363
2.4670274 -1.2159349 1.8799351
2.4589701 -1.2187631 1.8775499
2.4477761 -1.2201784 1.8742363
2.4315095 -1.2193054 1.869422
2.4080584 -1.2151711 1.8624818
2.3910105 -1.2137651 1.8574364
2.3761301 -1.2132413 1.8530324
2.369797 -1.2164881 1.8511571
2.3592877 -1.2178121 1.8480464
2.3180377 -1.20509 1.8358402
2.2978175 -1.2017821 1.8298562
2.2877092 -1.2030247 1.8268641
2.2801869 -1.205413 1.8246371
2.2728453 -1.2078462 1.8224635
2.2605462 -1.2079217 1.8188231
2.2417071 -1.2048569 1.8132479
2.3563828 1.1499375 1.8420771
2.3633034 1.1476794 1.8441083
2.3640521 1.1420124 1.8443267
2.3666091 1.1373254 1.8450764
2.3654435 1.1306099 1.8447326
2.3728864 1.1285386 1.8469173
2.398016 1.1359136 1.8542962
2.4050372 1.1334956 1.8563571
2.4072433 1.1284838 1.8570035
2.4059267 1.1215993 1.8566154
2.410857 1.1180067 1.8580619
2.4132209 1.1130461 1.8587549
2.4096887 1.1050023 1.857716
2.4212275 1.1047871 1.8611034
2.4290581 1.1026006 1.8634017
2.4364879 1.100168 1.8655823
2.4480574 1.0998108 1.8689787
2.4592774 1.0992166 1.8722725
2.4689772 1.0977966 1.8751199
2.478754 1.0963651 1.8779898
2.4820335 1.0916333 1.8789514
2.4896736 1.0890547 1.8811936
2.5015962 1.0885574 1.8846936
2.515877 1.0891602 1.8888865
2.5385435 1.0937982 1.8955417
2.5590878 1.0972853 1.9015738
2.5779021 1.0998282 1.9070978
2.5913675 1.0996947 1.9110508
2.6202543 1.1068896 1.919533
2.6357789 1.1075608 1.9240909
2.6414306 1.103467 1.9257491
2.8246272 0.47168204 1.9793831
2.8255768 0.46463034 1.9796602
2.8191905 0.45599684 1.9777834
2.8185925 0.44862553 1.9776062
2.8327599 0.4443554 1.9817642
2.8385727 0.43828097 1.9834694
2.8474872 0.43281159 1.9860852
2.851608 0.42632756 1.9872932
2.8564639 0.41996905 1.9887174
2.8803396 0.41733196 1.9957262
2.8799253 0.40985027 1.9956027
2.8712883 0.40079328 1.993065
2.8581939 0.39093718 1.9892187
2.8403044 0.38025323 1.9839642
2.8314459 0.37132403 1.9813615
2.838412 0.36531326 1.9834051
2.8469117 0.35954133 1.9858991
2.8471408 0.35226658 1.9859647
2.8689291 0.34873873 1.9923604
2.8512657 0.33834186 1.9871724
2.8566895 0.33193064 1.9887631
2.8533981 0.32404372 1.9877951
2.8627617 0.31824371 1.9905425
2.8649495 0.31124029 1.9911833
2.8666723 0.30415195 1.9916873
2.8784385 0.29862019 1.9951403
2.891413 0.29321322 1.998948
2.896512 0.28655258 2.0004435
2.899071 0.27948946 2.001193
2.8955674 0.27153069 2.0001626
2.9114866 0.26636758 2.0048349
2.9145026 0.25931054 2.0057185
2.9148777 0.25187391 2.005827
2.9014447 0.24256724 2.0018811
2.8936865 0.23408276 1.9996016
2.891784 0.22640041 1.9990413
2.9002471 0.22005048 2.0015244
2.9207282 0.21515957 2.0075359
2.9370518 0.20210832 2.012325
2.9233351 0.19295311 2.008296
2.9059072 0.18344265 2.0031776
2.898941 0.17519528 2.0011306
2.8959689 0.16742152 2.0002561
2.9036446 0.16080281 2.0025079
2.9158781 0.15462083 2.0060978
2.9256639 0.1481266 2.0089693
2.9358327 0.14162019 2.0119531
2.9503996 0.13548708 2.0162282
2.9739461 0.076642364 2.0231271
2.9650159 0.068344504 2.0205033
2.970824 0.061140031 2.0222068
2.9662538 0.053194761 2.0208631
2.9657581 0.045541704 2.0207157
2.9610918 0.037626922 2.0193441
2.9649346 0.030253485 2.0204706
2.9879467 0.02397649 2.027225
2.998394 0.016881958 2.0302901
3.0063648 0.0096023083 2.0326285
3.0139465 0.0022620708 2.0348525
3.0087833 -0.0057282001 2.0333352
2.9919693 -0.014220655 2.0283968
2.9755385 -0.022610277 2.0235713
2.9653172 -0.030665524 2.0205686
2.9677763 -0.038190529 2.0212889
2.9772398 -0.045482233 2.0240655
2.9906113 -0.052695386 2.0279891
3.0018759 -0.060040347 2.0312943
3.0184095 -0.067298763 2.0361466
3.0414414 -0.074480765 2.0429065
3.0454366 -0.082204826 2.0440776
3.0185223 -0.12157417 2.0361671
3.0267918 -0.12927148 2.0385928
3.1327744 -0.18487677 2.0696936
3.0799937 -0.20802385 2.0541933
3.0790391 -0.21591491 2.0539112
3.0800061 -0.22384711 2.0541933
3.0828991 -0.23183537 2.0550406
3.0862112 -0.23985064 2.0560112
3.0838752 -0.24770397 2.0553234
3.0928218 -0.25593171 2.0579481
3.09671 -0.26401913 2.0590878
3.1003647 -0.27211729 2.0601587
3.0967417 -0.3037914 2.0590878
3.0955338 -0.31168243 2.0587313
3.0999162 -0.31987357 2.0600159
3.1121421 -0.32853714 2.0636029
3.1207597 -0.33704725 2.0661309
3.1149173 -0.34469774 2.064414
3.1333437 -0.35389748 2.0698214
3.1383202 -0.36228204 2.0712805
3.1476297 -0.39524996 2.0740056
3.1418042 -0.40286553 2.0722935
3.1475136 -0.4114092 2.0739679
3.1378162 -0.418663 2.0711193
3.1368876 -0.42664024 2.0708447
3.1401691 -0.43499485 2.0718062
3.1467466 -0.44367382 2.0737352
3.1487293 -0.45194599 2.0743153
3.1528757 -0.50092936 2.075521
3.157855 -0.50959384 2.0769808
3.1683035 -0.51892072 2.0800459
3.1732764 -0.52764964 2.0815039
3.1821072 -0.5368731 2.0840943
3.1877024 -0.54574019 2.0857348
3.1869369 -0.55382997 2.0855083
3.1919684 -0.56266522 2.0869832
3.1970158 -0.57152838 2.0884631
3.1997433 -0.58010566 2.0892618
3.2079401 -0.58944607 2.0916657
3.2134304 -0.5984509 2.0932755
3.216186 -0.60709512 2.0940826
3.2203245 -0.61595368 2.0952954
3.2175753 -0.62381911 2.0944865
3.2203376 -0.63249624 2.0952954
3.2240925 -0.64133871 2.0963957
3.2280931 -0.65023851 2.097568
3.2179947 -0.65693784 2.0946019
3.2033138 -0.66285145 2.0902905
3.1986485 -0.67031908 2.0889192
3.2002108 -0.67879152 2.089376
3.2066784 -0.68809533 2.0912726
3.2373011 -0.7015475 2.1002593
3.2509034 -0.7122134 2.1042502
3.2727008 -0.72438765 2.1106465
3.2889111 -0.73567855 2.1154027
3.299067 -0.74595928 2.118382
3.3019712 -0.7549634 2.1192322
3.2977853 -0.76266515 2.1180015
3.3055789 -0.77260172 2.1202874
3.288856 -0.77789772 2.1153765
3.2788248 -0.78440249 2.1124301
3.2844236 -0.79392004 2.1140716
3.3332362 -0.81204951 2.1283975
3.348084 -0.82359624 2.1327538
3.3630643 -0.83524621 2.1371489
3.366082 -0.84450483 2.1380327
3.3605015 -0.85198295 2.1363926
3.3427534 -0.85685921 2.131181
3.3548043 -0.86802232 2.1347163
3.3461668 -0.87476623 2.1321788
3.3420947 -0.8824662 2.1309817
3.347348 -0.89221311 2.1325216
3.3232036 -0.89539289 2.1254327
3.3135872 -0.90174472 2.1226082
3.3011262 -0.90739453 2.1189485
3.3064413 -0.91710424 2.1205068
3.3090255 -0.92620075 2.1212633
3.3277192 -0.93913054 2.1267481
3.3426588 -0.95125651 2.1311312
3.354167 -0.96262789 2.1345072
3.3661852 -0.97418308 2.1380327
3.375257 -0.98507118 2.1406934
3.3952928 -0.9987464 2.1465721
3.400564 -1.0087957 2.1481171
3.4058511 -1.0188763 2.1496673
3.3988211 -1.0258099 2.1476016
3.3953204 -1.0336262 2.1465721
3.3874619 -1.0402789 2.1442633
3.3839848 -1.048054 2.1432409
3.3823974 -1.0563174 2.1427729
3.3895183 -1.0669286 2.144861
3.4433486 -1.1168556 2.1606526
3.4203858 -1.1191902 2.1539106
3.4172847 -1.1270857 2.1529984
3.4245536 -1.1379569 2.1551299
3.4236693 -1.1464922 2.1548681
3.4165661 -1.1531969 2.1527815
3.4028804 -1.1579155 2.1487625
3.3998103 -1.1657355 2.1478593
3.4028943 -1.1753937 2.1487625
3.4029012 -1.1841328 2.1487625
3.3952267 -1.1905178 2.1465077
3.3830149 -1.1954612 2.1429217
3.3730078 -1.2010287 2.1399827
2.8807657 -1.1733791 1.9954793
2.8700714 -1.1769483 1.9923389
2.8543293 -1.1786436 1.987717
2.8410878 -1.1811652 1.9838291
2.8262985 -1.1830536 1.9794871
2.8101618 -1.1843697 1.9747494
2.790555 -1.1843168 1.9689933
2.7796085 -1.1873953 1.9657788
2.7629838 -1.188284 1.9608982
2.735805 -1.185094 1.9529197
2.7252359 -1.1880915 1.9498165
2.7211847 -1.1935341 1.9486258
2.718586 -1.1995165 1.9478614
2.7062407 -1.2016981 1.9442368
2.651346 -1.1871713 1.9281244
2.6175003 -1.1806508 1.9181896
2.5957379 -1.1787454 1.9118011
2.5645034 -1.17295 1.902633
2.5619798 -1.1785201 1.9018908
2.5368419 -1.1749407 1.8945118
2.5307496 -1.1789761 1.8927222
2.5255346 -1.183339 1.8911904
2.5255399 -1.1898243 1.8911904
2.5272422 -1.1970128 1.8916885
2.5238552 -1.2020885 1.8906928
2.5187888 -1.2064425 1.8892045
2.5091903 -1.2088578 1.8863862
2.5003772 -1.2115571 1.8837981
2.490447 -1.2137341 1.8808824
2.4814138 -1.2162458 1.87823
2.4716337 -1.2183878 1.8753581
2.46193 -1.2205131 1.8725089
2.4491081 -1.2212247 1.8687446
2.4322548 -1.2200966 1.8637973
2.4013817 -1.212678 1.8547354
2.3798935 -1.2092779 1.8484278
2.3518977 -1.202854 1.8402104
2.3309779 -1.1994724 1.8340697
2.3205717 -1.200744 1.8310144
2.3124225 -1.2029901 1.8286215
2.2944889 -1.2007133 1.8233572
2.2823586 -1.2010171 1.8197961
2.2743773 -1.2031796 1.8174523
2.2615836 -1.2030605 1.8136964
2.2550564 -1.2058098 1.8117797
2.2391078 -1.20409 1.8070979
2.231436 -1.2062061 1.8048452
2.1367908 -1.1888312 1.7770638
2.1406875 -1.1962203 1.778206
2.1465566 -1.2045983 1.7799271
2.1441133 -1.2089014 1.7792089
2.3752277 1.1547905 1.8418931
2.3787427 1.1506031 1.8429155
2.3839235 1.1473043 1.8444233
2.3964586 1.1479617 1.8480732
2.4044995 1.1461323 1.8504142
2.4139235 1.1450034 1.8531579
2.4202614 1.1421785 1.8550025
2.4256251 1.1388034 1.8565636
2.4258537 1.1326854 1.8566287
2.4369137 1.1322657 1.8598489
2.4405808 1.127918 1.8609155
2.444324 1.1235913 1.8620045
2.4381335 1.114095 1.8601999
2.4374604 1.1074768 1.8600023
2.4390483 1.1020228 1.8604634
2.4485931 1.1006248 1.8632423
2.4582131 1.0992157 1.8660429
2.4695313 1.0986161 1.8693384
2.4809542 1.0980107 1.8726642
2.4858854 1.0940976 1.874099
2.494972 1.0922284 1.8767443
2.5032909 1.0899321 1.879166
2.5176783 1.0905832 1.8833553
2.5334513 1.0918397 1.8879483
2.5530128 1.0948622 1.8936447
2.5714943 1.0972605 1.8990264
2.5884609 1.0988327 1.9039669
2.6143749 1.1046114 1.9115136
2.63288 1.1067204 1.9169021
2.6437092 1.1050904 1.9200548
2.6589832 1.1055033 1.9245023
2.845839 0.44004121 1.9787544
2.8520169 0.43399039 1.9805518
2.8518167 0.42661819 1.9804918
2.8581245 0.4205462 1.982327
2.8790936 0.41733095 1.9884318
2.8818336 0.41046265 1.989228
2.8760095 0.40193674 1.9875302
2.8631778 0.39211395 1.9837918
2.8489168 0.38209024 1.9796371
2.8412285 0.37335047 1.9773964
2.8778687 0.37270179 1.9880649
2.8869023 0.36692145 1.9906938
2.8807528 0.3584151 1.9889014
2.8863087 0.35197619 1.9905176
2.8875115 0.3447628 1.9908659
2.8725548 0.33481592 1.9865087
2.8841112 0.32935259 1.9898723
2.8735602 0.32021236 1.9867982
2.8713701 0.31247306 1.9861586
2.8709056 0.30501851 1.9860218
2.8793981 0.29896301 1.988493
2.8812966 0.29185265 1.9890442
2.8876295 0.28540123 1.9908867
2.8939903 0.27892134 1.9927372
2.9043827 0.27299601 1.9957618
2.9190018 0.26762193 2.0000172
2.922792 0.26065138 2.0011191
2.9205263 0.25282598 2.0004575
2.9061716 0.24337596 1.9962757
2.8988104 0.2349284 1.9941304
2.9020147 0.22789451 1.9950618
2.9156396 0.22217444 1.9990277
2.9263942 0.21602529 2.0021577
2.9323444 0.20169511 2.0038867
2.9051671 0.16109934 1.9959641
2.9111753 0.15426016 1.997712
2.924778 0.14816427 2.0016713
2.9391646 0.14207646 2.0058589
2.9487634 0.13545123 2.0086522
2.9749706 0.13034171 2.0162816
2.9852188 0.1236347 2.019264
2.9927542 0.11663336 2.0214565
3.0011268 0.10966569 2.0238926
2.9987378 0.10175163 2.0231953
2.9915814 0.093461826 2.0211096
2.9892075 0.085585788 2.0204167
2.985651 0.077631816 2.0193791
2.9742343 0.069117099 2.016053
2.9789562 0.061808571 2.017426
2.9659736 0.053262487 2.0136442
2.9633062 0.045463562 2.0128655
2.9601994 0.037650526 2.0119591
2.9642091 0.030286342 2.0131249
3.0078297 0.025208965 2.0258248
3.0126591 0.017747432 2.0272293
3.014708 0.010113478 2.0278239
3.0174811 0.0025055707 2.0286298
3.0126488 -0.0054813772 2.0272207
3.0066283 -0.013497382 2.025466
2.9959323 -0.02168268 2.0223498
2.986923 -0.02974505 2.0197246
2.982188 -0.037599981 2.0183442
2.9881227 -0.045055814 2.0200706
3.0012558 -0.052307822 2.0238926
3.0174441 -0.059535697 2.0286045
3.0339828 -0.066837147 2.0334182
3.048759 -0.074267358 2.037719
3.0545475 -0.081973627 2.0394027
3.0438221 -0.12132456 2.0362706
3.0426309 -0.12915504 2.0359221
3.1340179 -0.16879901 2.0625217
3.1314127 -0.17683059 2.0617614
3.1314192 -0.18487786 2.0617614
3.1301215 -0.19290723 2.0613816
3.1197329 -0.20078194 2.0583551
3.1004338 -0.20843527 2.0527339
3.0953324 -0.21629345 2.0512466
3.0927913 -0.22418681 2.0505052
3.0940709 -0.23216853 2.0508757
3.0986331 -0.24025241 2.0522022
3.1038806 -0.24838141 2.0537281
3.1117902 -0.25662857 2.0560293
3.1171346 -0.26482189 2.0575836
3.1089864 -0.27251095 2.0552094
3.1084962 -0.3124308 2.0550573
3.1265655 -0.32140917 2.0603166
3.130044 -0.32964295 2.0613275
3.1357217 -0.3380264 2.0629787
3.1396205 -0.34632784 2.0641117
3.1496346 -0.35504735 2.0670257
3.1660347 -0.36425042 2.0717988
3.1658959 -0.41305074 2.0717471
3.1659024 -0.42118615 2.0717471
3.159255 -0.42873448 2.0698097
3.1599257 -0.43691307 2.070003
3.1665885 -0.4456546 2.0719409
3.1685977 -0.45398381 2.0725241
3.2408996 -0.51088393 2.0935631
3.2144346 -0.51619625 2.085856
3.1951411 -0.52220786 2.0802369
3.1888216 -0.52966499 2.0783951
3.1874754 -0.53769457 2.0780013
3.1942551 -0.54672635 2.0799732
3.2024276 -0.5559696 2.0823507
3.2133875 -0.56561518 2.0855398
3.2230399 -0.57514465 2.0883479
3.2258127 -0.58379865 2.0891533
3.2313669 -0.59284794 2.0907683
3.2369401 -0.60192835 2.0923889
3.2425325 -0.61104012 2.0940151
3.2495484 -0.62038672 2.096056
3.2523675 -0.62915099 2.0968747
3.2551913 -0.63793039 2.0976949
3.2537887 -0.64607996 2.0972846
3.2495751 -0.65378642 2.096056
3.2482345 -0.661924 2.0956638
3.256628 -0.67161393 2.0981054
3.2646503 -0.68128645 2.1004391
3.2760406 -0.69155681 2.1037531
3.2863922 -0.7017113 2.1067648
3.2529857 -0.70446062 2.0970371
3.2890403 -0.71905613 2.1075318
3.2902491 -0.72771835 2.1078815
3.3096094 -0.73962069 2.1135161
3.3129501 -0.7487272 2.1144867
3.2904975 -0.75312316 2.1079483
3.2995837 -0.76326561 2.1105914
3.3180404 -0.77522039 2.1159625
3.3112259 -0.78244317 2.1139767
3.3033328 -0.78942215 2.1116769
3.3148355 -0.8001647 2.1150236
3.3449743 -0.81466949 2.123796
3.3610306 -0.82649457 2.128468
3.3757002 -0.83811963 2.1327367
3.3777299 -0.84721088 2.1333256
3.3693733 -0.85414183 2.1308908
3.3407791 -0.8567487 2.1225646
3.3488004 -0.8670485 2.1248977
3.3444645 -0.87471211 2.1236336
3.3595905 -0.8866204 2.1280348
3.3681133 -0.8971417 2.1305141
3.3573747 -0.90338457 2.1273859
3.3505402 -0.91045821 2.1253941
3.3268206 -0.91362107 2.1184871
3.326587 -0.92211318 2.118417
3.3480024 -0.93568456 2.1246495
3.3519907 -0.94523144 2.1258085
3.3636401 -0.95663595 2.1291978
3.3768148 -0.96846998 2.1330311
3.4094973 -0.9851501 2.1425433
3.4418962 -1.001928 2.1519728
3.4580607 -1.0148121 2.1566768
3.459367 -1.0240253 2.1570549
3.4453945 -1.0293459 2.1529851
3.4196515 -1.0315599 2.1454892
3.4121189 -1.0383832 2.1432943
3.4059417 -1.0455241 2.141494
3.3978112 -1.0521145 2.1391251
3.3921227 -1.0593178 2.1374674
3.3921297 -1.0680332 2.1374674
3.4137034 -1.0826409 2.1437454
3.4261577 -1.0948445 2.1473689
3.4387033 -1.1071373 2.1510191
3.4481747 -1.1186309 2.153774
3.4471273 -1.1271914 2.1534672
3.4524119 -1.1375577 2.1550035
3.4513624 -1.1461229 2.1546955
3.4529548 -1.1554519 2.1551571
3.446629 -1.1624633 2.1533136
3.4419017 -1.1699157 2.1519356
3.4387596 -1.1778177 2.1510191
3.4324856 -1.1847591 2.1491904
3.426235 -1.1916755 2.1473689
3.4104753 -1.1956443 2.1427794
3.375478 -1.1935846 2.1325898
3.3627012 -1.1982718 2.1288683
2.9062316 -1.175409 1.9959642
2.8850453 -1.1753439 1.9897954
2.8724837 -1.1782571 1.9861372
2.8574328 -1.1802084 1.9817545
2.845695 -1.1832852 1.978336
2.8313084 -1.1853334 1.9741466
2.807548 -1.1838557 1.9672288
2.7835939 -1.1821839 1.9602544
2.7687581 -1.1837939 1.9559344
2.7557147 -1.1860013 1.952136
2.7429364 -1.1882421 1.948415
2.7309847 -1.1907321 1.9449345
2.7165496 -1.1922082 1.940731
2.7028947 -1.1939113 1.9367547
2.6867085 -1.1945601 1.9320416
2.6505554 -1.1873116 1.9215167
2.6134229 -1.1794915 1.9107068
2.5956392 -1.1791524 1.9055288
2.5869169 -1.1823378 1.9029884
2.5802081 -1.1862872 1.9010341
2.5564399 -1.1833066 1.8941143
2.5476577 -1.1862997 1.8915564
2.538079 -1.1889217 1.8887668
2.5346611 -1.1940322 1.8877704
2.533812 -1.2001897 1.8875219
2.5295544 -1.2049214 1.886281
2.5261598 -1.2099931 1.8852915
2.5185483 -1.2132673 1.8830745
2.5084691 -1.2154543 1.8801391
2.4968109 -1.2169145 1.8767443
2.4844391 -1.2180085 1.8731418
2.4721894 -1.2190913 1.8695749
2.4592555 -1.2198137 1.8658087
2.4453192 -1.2200309 1.8617508
2.4304171 -1.2197515 1.857412
2.3976095 -1.2114683 1.8478613
2.3681245 -1.2044961 1.8392779
2.3392367 -1.1976401 1.8308682
2.322371 -1.1960506 1.8259579
2.3085589 -1.1957579 1.8219364
2.3003087 -1.1979278 1.8195337
2.2863226 -1.1974275 1.8154614
2.2751911 -1.1981704 1.81222
2.2654016 -1.199478 1.8093693
2.248244 -1.1973029 1.8043742
2.2408137 -1.1995959 1.8022101
2.2343333 -1.2022982 1.8003225
2.2266541 -1.2043996 1.7980862
2.1492648 -1.1953484 1.775555
2.1471491 -1.199833 1.7749381
2.146095 -1.2048285 1.7746298
2.1391211 -1.2068937 1.7725987
2.1262195 -1.2059791 1.7688426
2.1190326 -1.2078511 1.7667495
2.1118941 -1.2097105 1.7646706
2.1044672 -1.2113874 1.7625077
2.0876641 -1.2082735 1.7576158
2.0752652 -1.2073171 1.7540059
2.0738521 -1.2119223 1.7535933
2.0876768 -1.2243621 1.7576158
2.0956392 -1.2338409 1.7599322
2.3782096 1.156994 1.8370321
2.3996401 1.1625965 1.8432217
2.4042614 1.1589377 1.8445553
2.419384 1.1609454 1.8489226
2.4249592 1.1577264 1.8505318
2.427439 1.1528175 1.8512466
2.4337757 1.1499557 1.8530757
2.4403343 1.1471795 1.854969
2.443743 1.1427033 1.8559523
2.4558892 1.1428092 1.8594596
2.4596152 1.1384417 1.8605345
2.4580429 1.1312933 1.8600789
2.4491146 1.1203374 1.8574982
2.4491196 1.1140381 1.8574982
2.4475281 1.1069191 1.8570369
2.4539318 1.1038935 1.8588855
2.4619827 1.1016724 1.8612096
2.4733405 1.1010828 1.8644893
2.4848039 1.1004878 1.8677993
2.4930587 1.0982271 1.8701825
2.502202 1.0963669 1.8728223
2.5105729 1.0940768 1.8752389
2.5219007 1.0932012 1.8785098
2.5334527 1.0923775 1.8818455
2.5495558 1.0937141 1.8864955
2.5647376 1.0945212 1.8908796
2.581115 1.095827 1.895609
2.6080565 1.1021205 1.90339
2.628056 1.1049602 1.9091657
2.6410894 1.1043887 1.9129293
2.6582503 1.1056999 1.9178848
2.6731563 1.1058633 1.9221892
2.856571 0.42782864 1.9749961
2.863353 0.42183647 1.976953
2.8779876 0.41735765 1.9811778
2.8856456 0.41144601 1.9833879
2.8802764 0.40299401 1.9818356
2.8695927 0.39356282 1.9787483
2.8596096 0.38431761 1.9758635
2.8561978 0.37633476 1.9748765
2.8904796 0.3752186 1.9847754
2.8893392 0.36758074 1.9844444
2.8844204 0.35928175 1.9830221
2.895546 0.35379973 1.9862335
2.901197 0.34732202 1.9878638
2.8934331 0.33855015 1.98562
2.8934922 0.331119 1.9856352
2.8826048 0.32189566 1.9824892
2.8792431 0.31394094 1.9815168
2.8734272 0.30561435 1.9798354
2.8718631 0.29798111 1.979382
2.8778427 0.29151309 1.9811071
2.8844795 0.2851136 1.9830221
2.8956053 0.27934554 1.9862335
2.9090688 0.27386093 1.9901199
2.9302592 0.26941308 1.9962379
2.9317901 0.26209292 1.9966782
2.9272261 0.25392389 1.9953585
2.9103808 0.24411526 1.990492
2.908133 0.23633257 1.9898411
2.916204 0.22990564 1.9921701
2.9302952 0.22420612 1.9962379
2.9342694 0.21716815 1.9973838
2.9341288 0.20206049 1.9973397
2.9918439 0.13205281 2.0139894
2.9966242 0.12479806 2.015368
3.0006208 0.1174489 2.0165205
3.0030262 0.10994148 2.0172133
3.0046339 0.10235479 2.0176759
3.0030384 0.094499007 2.0172133
3.0014443 0.086651608 2.0167513
2.9962626 0.078538746 2.0152531
2.9876094 0.070196733 2.0127525
3.0430837 0.027338237 2.0287614
3.0434923 0.019536585 2.0288775
3.031646 0.011081696 2.025455
3.0258951 0.0029959828 2.0237923
3.0204263 -0.0050465912 2.0222113
3.0167933 -0.01297763 2.0211606
3.0149832 -0.020811856 2.0206361
3.0077462 -0.028855309 2.0185444
3.0035434 -0.03674712 2.0173287
3.0035493 -0.044469401 2.0173287
3.0095723 -0.051995754 2.0190663
3.0253353 -0.059260897 2.0236163
3.0445514 -0.066512369 2.0291638
3.0594969 -0.073968776 2.0334775
3.0665207 -0.08167848 2.0355039
3.0938916 -0.089023247 2.043406
3.0990033 -0.096890211 2.0448804
3.0586445 -0.1211735 2.0332205
3.0628073 -0.12900878 2.034421
3.1405196 -0.16884725 2.0568519
3.1335394 -0.17686152 2.0548344
3.1287603 -0.1848644 2.0534527
3.1222646 -0.19281915 2.0515752
3.1153655 -0.20073387 2.0495811
3.1054981 -0.20855713 2.04673
3.1042213 -0.21651368 2.0463595
3.1042275 -0.22449443 2.0463595
3.1055171 -0.23250927 2.04673
3.1149049 -0.2407667 2.049439
3.1309853 -0.24928457 2.05408
3.128818 -0.25725955 2.0534527
3.1310847 -0.26538676 2.0541053
3.1537006 -0.32297271 2.0606225
3.1587586 -0.33137053 2.0620813
3.1796665 -0.36526716 2.0681107
3.2049944 -0.37522098 2.0754223
3.1859984 -0.41483676 2.0699277
3.1887097 -0.42325911 2.0707088
3.1846609 -0.43109873 2.0695376
3.1819699 -0.43904081 2.068759
3.1873763 -0.44772539 2.070318
3.183331 -0.45553058 2.0691481
3.2050667 -0.4658556 2.0754223
3.283546 -0.51579225 2.0980723
3.2635565 -0.52195442 2.0922987
3.2294531 -0.52636886 2.0824502
3.2083127 -0.53215218 2.0763443
3.1973314 -0.53906274 2.0731716
3.1983101 -0.54740304 2.0734525
3.2096381 -0.55706084 2.0767212
3.232265 -0.56823891 2.0832524
3.2491126 -0.57877052 2.088115
3.2579758 -0.58831453 2.090672
3.2608104 -0.59707761 2.0914886
3.2636502 -0.60585582 2.0923066
3.2664948 -0.61464942 2.0931258
3.2707677 -0.62366438 2.0943577
3.2736249 -0.6324926 2.0951807
3.2736316 -0.640908 2.0951807
3.2693644 -0.64867151 2.0939469
3.2651086 -0.65641487 2.0927162
3.2594492 -0.66391504 2.0910802
3.2628939 -0.67284489 2.0920727
3.3018224 -0.6875695 2.1033103
3.3194542 -0.69897211 2.1083992
3.332361 -0.70967185 2.1121235
3.3728104 -0.73380339 2.1237981
3.3140035 -0.75769579 2.1068115
3.3068662 -0.76488626 2.104749
3.331732 -0.77807331 2.1119266
3.3265407 -0.78564453 2.1104255
3.3273897 -0.79435873 2.1106687
3.3324564 -0.80390489 2.1121294
3.3495839 -0.81587481 2.1170726
3.3597193 -0.82652462 2.1199965
3.3778515 -0.83885741 2.1252298
3.3828559 -0.84857225 2.1266725
3.3765643 -0.85595131 2.1248541
3.354974 -0.86005998 2.1186187
3.3563232 -0.86897159 2.1190062
3.3567584 -0.87769198 2.1191299
3.3744256 -0.89019465 2.1242285
3.3757317 -0.89915705 2.1246037
3.3619285 -0.90473413 2.1206167
3.3550723 -0.91181767 2.1186352
3.368258 -0.92346823 2.1224401
3.3861921 -0.93628907 2.1276157
3.394316 -0.94689906 2.1299591
3.392905 -0.95528746 2.1295497
3.3940794 -0.96428907 2.1298869
3.4081624 -0.97642672 2.1339507
3.4680986 -0.99987328 2.1512523
3.4943514 -1.015287 2.1588297
3.5072746 -1.0275007 2.1625586
3.5024774 -1.0353016 2.1611714
3.4651568 -1.0347736 2.1503949
3.4527283 -1.0404735 2.1468048
3.4472289 -1.0479141 2.145215
3.4405782 -1.0550238 2.1432929
3.4308386 -1.0612787 2.1404791
3.4175968 -1.0665443 2.1366541
3.4071798 -1.0725067 2.1336448
3.4403491 -1.0903287 2.1432185
3.4475727 -1.1011628 2.1453021
3.4606454 -1.1136628 2.1490741
3.4705627 -1.1253432 2.1519351
3.4743142 -1.1353259 2.1530161
3.4753928 -1.1445628 2.1533256
3.4721878 -1.1525685 2.1523981
3.4721949 -1.1614933 2.1523981
3.468996 -1.169476 2.1514726
3.4658031 -1.1774439 2.1505489
3.4671156 -1.1867428 2.1509256
3.4393764 -1.1872865 2.1429155
3.4247525 -1.1916767 2.1386917
3.4022059 -1.1935617 2.1321807
3.3578627 -1.188589 2.1193774
3.3432994 -1.1926757 2.115171
2.9260843 -1.1753427 1.9947
2.9149914 -1.1789458 1.9914961
2.8971395 -1.1800888 1.9863409
2.8714361 -1.178328 1.9789193
2.85868 -1.1811053 1.9752351
2.8463109 -1.1839572 1.9716628
2.8364933 -1.1876793 1.968827
2.8126359 -1.1861784 1.9619381
2.7906561 -1.1852515 1.9555914
2.7736895 -1.1860844 1.9506922
2.7531769 -1.1854962 1.944769
2.7412496 -1.1880536 1.9413244
2.725348 -1.1890346 1.9367324
2.7137535 -1.191587 1.9333837
2.6959097 -1.1916652 1.9282312
2.6807103 -1.19268 1.923842
2.6525261 -1.1885331 1.9157044
2.6182735 -1.1818495 1.9058154
2.6017027 -1.1820037 1.9010302
2.591965 -1.1848007 1.8982177
2.5841601 -1.1883243 1.8959631
2.5674319 -1.1881995 1.8911327
2.5564568 -1.1903299 1.8879631
2.5473008 -1.1931486 1.8853185
2.5455801 -1.1989845 1.8848205
2.5430012 -1.2044553 1.8840744
2.5369966 -1.2084838 1.8823395
2.5314465 -1.2126721 1.880736
2.5225294 -1.2154098 1.8781604
2.5124137 -1.2175926 1.8752389
2.4990506 -1.2183348 1.8713801
2.4854178 -1.2188923 1.8674433
2.4719329 -1.2194439 1.8635491
2.4520419 -1.2171382 1.857806
2.4389348 -1.2177 1.8540211
2.4243271 -1.2175337 1.849803
2.3867133 -1.2071025 1.8389441
2.3569181 -1.1999613 1.8303421
2.3315029 -1.1946293 1.8230045
2.3175385 -1.1943265 1.8189721
2.3060961 -1.1950951 1.8156679
2.2981887 -1.1974158 1.8133839
2.2786677 -1.1943731 1.8077477
2.2379022 -1.1929374 1.7959766
2.2332513 -1.1965073 1.7946329
2.2276292 -1.1995956 1.7930086
2.2237883 -1.2034988 1.7918987
2.2233541 -1.2090051 1.7917721
2.2259934 -1.2159808 1.7925324
2.222424 -1.219981 1.7915009
2.2007959 -1.2152219 1.7852566
2.167788 -1.2048148 1.7757277
2.1495218 -1.2014487 1.7704539
2.14873 -1.2065814 1.7702241
2.1434813 -1.209507 1.7687078
2.1340365 -1.2103208 1.7659804
2.1173203 -1.2074543 1.7611542
2.1071472 -1.2077868 1.7582165
2.0966263 -1.2078912 1.7551783
2.0812936 -1.2055017 1.7507515
2.0695798 -1.2048776 1.7473691
2.0656111 -1.208161 1.7462223
2.0747397 -1.2181671 1.7488559
2.0858557 -1.2292484 1.7520634
2.0756941 -1.2293228 1.7491291
2.0525894 -1.2225815 1.7424588
2.4603028 1.1963612 1.8548138
2.457689 1.188604 1.8540635
2.4411085 1.1732889 1.8493122
2.4420965 1.167538 1.8495939
2.4400604 1.1601579 1.8490092
2.4440382 1.1560022 1.8501472
2.4532871 1.1546289 1.8527952
2.4538646 1.1486193 1.8529594
2.4622266 1.146706 1.8553534
2.4638865 1.1412376 1.8558275
2.4625058 1.1341749 1.8554305
2.4592834 1.1261637 1.8545059
2.4576778 1.119004 1.8540447
2.4560745 1.1118537 1.8535838
2.4592986 1.1071794 1.8545059
2.4657669 1.1041387 1.8563575
2.4755309 1.1027323 1.859153
2.4870198 1.1021442 1.8624426
2.496953 1.1007178 1.8652868
2.506129 1.0988629 1.8679138
2.517904 1.0982492 1.8712854
2.5293028 1.0973897 1.8745494
2.5409284 1.0965824 1.8778782
2.5547709 1.0967975 1.8818421
2.5665071 1.0959184 1.8852024
2.5775921 1.0946648 1.8883764
2.6011195 1.0993301 1.8951144
2.6214132 1.1023295 1.9009262
2.6350031 1.1020393 1.9048176
2.6566811 1.1055014 1.9110259
2.6727233 1.1062031 1.9156199
2.6845636 1.104858 1.9190102
2.6909857 1.1009333 1.9208479
2.8871427 0.41197971 1.9768604
2.8834524 0.40384254 1.9758017
2.8749402 0.39481071 1.9733623
2.8733745 0.38712123 1.9729122
2.8784165 0.38065794 1.9743545
2.9025869 0.377646 1.9812748
2.9057488 0.37074485 1.9821788
2.9036143 0.36289176 1.9815658
2.9058678 0.35581365 1.9822094
2.9151149 0.34992328 1.9848561
2.9152827 0.3424516 1.9849024
2.9158278 0.33504191 1.9850568
2.9025216 0.32536089 1.9812442
2.8946407 0.316623 1.9789857
2.8843205 0.30753875 1.9760284
2.8761182 0.29883814 1.9736778
2.875495 0.29134303 1.9734975
2.8788085 0.28444523 1.9744447
2.8876722 0.27835375 1.9769815
2.9055583 0.27353188 1.9821022
2.9278483 0.26924852 1.9884839
2.9316649 0.26225281 1.9895751
2.928241 0.25423798 1.9885929
2.9168706 0.24516419 1.9853349
2.9236917 0.23856667 1.9872866
2.940335 0.23321426 1.9920514
2.9497399 0.2268514 1.9947429
2.9496796 0.21925533 1.9947239
2.9526243 0.21202803 1.9955653
2.9395947 0.20286807 1.9918324
2.9971428 0.13267368 2.0082951
2.9921439 0.12450501 2.0068619
2.991951 0.11679065 2.0068049
2.9953392 0.10938737 2.0077734
3.0061386 0.10258946 2.0108643
3.0074639 0.09496434 2.0112419
3.0081582 0.087282658 2.0114388
2.9985535 0.078811541 2.008687
2.9910741 0.070546567 2.0065432
3.0605245 0.02843079 2.0264206
3.0529456 0.020135775 2.0242486
3.0421727 0.011709988 2.021162
3.0282445 0.0031800568 2.0171716
3.0221565 -0.0049017817 2.0154264
3.0221627 -0.012675345 2.0154264
3.0282631 -0.020187661 2.0171716
3.0240006 -0.028148904 2.0159492
3.0227895 -0.03597308 2.0156007
3.0203638 -0.043833688 2.0149043
3.0217593 -0.051557302 2.0153022
3.0394139 -0.058800198 2.0203557
3.0556176 -0.06617368 2.0249941
3.0706787 -0.073658906 2.029305
3.0752358 -0.081455693 2.0306082
3.0908551 -0.089057781 2.035079
3.0959587 -0.096920475 2.0365388
3.07863 -0.12097364 2.0315711
3.0841155 -0.12885465 2.0331402
3.1118147 -0.13666868 2.04107
3.1352084 -0.14463255 2.0477672
3.1510029 -0.15271018 2.0522878
3.153656 -0.16082394 2.0530457
3.1417871 -0.1688641 2.0496449
3.1339254 -0.17687756 2.0473924
3.1274059 -0.18486549 2.0455234
3.1202645 -0.19281133 2.0434768
3.1176798 -0.20079464 2.0427351
3.1213582 -0.20888275 2.0437863
3.11834 -0.21684623 2.0429201
3.1235352 -0.22499131 2.0444059
3.1272583 -0.23312397 2.0454702
3.1351519 -0.24139732 2.047729
3.141413 -0.24965948 2.0495198
3.1339898 -0.25748447 2.0473924
3.1327755 -0.26550013 2.0470428
3.2169871 -0.32652137 2.0711429
3.2182193 -0.33486581 2.0714936
3.1945148 -0.36636719 2.0646987
3.2072558 -0.37547863 2.0683451
3.1927431 -0.41551343 2.0641804
3.195467 -0.42395791 2.0649583
3.1945024 -0.43209064 2.0646803
3.204571 -0.44122103 2.0675614
3.2083592 -0.44981629 2.068644
3.2009418 -0.45735499 2.0665183
3.2044082 -0.46592858 2.0675089
3.3405185 -0.51371074 2.1064734
3.3075671 -0.51862895 2.0970366
3.2914321 -0.52529502 2.0924149
3.2701595 -0.53127909 2.0863221
3.235944 -0.53561139 2.0765235
3.2275395 -0.54290986 2.0741153
3.2162902 -0.54981136 2.0708923
3.2358973 -0.56057 2.0765042
3.2528577 -0.57108688 2.0813584
3.2589812 -0.58026028 2.0831099
3.2650607 -0.58945912 2.0848489
3.2675028 -0.59819031 2.085546
3.2831554 -0.60878003 2.0900257
3.2912474 -0.61837423 2.0923405
3.2966201 -0.62761617 2.0938771
3.296627 -0.63609445 2.0938771
3.2937419 -0.64413881 2.093049
3.2865415 -0.65150976 2.0909855
3.283674 -0.6595161 2.0901628
3.2808118 -0.66750836 2.0893412
3.2929437 -0.6778897 2.092813
3.3243952 -0.69148016 2.1018157
3.3481159 -0.70395315 2.1086054
3.3594632 -0.71446908 2.1118522
3.403558 -0.73938191 2.1244731
3.3429017 -0.76326156 2.1070988
3.3109858 -0.76592016 2.097959
3.3570867 -0.78312814 2.111156
3.3458405 -0.78961039 2.1079345
3.3492579 -0.79887569 2.108911
3.35868 -0.80933714 2.1116066
3.3661425 -0.81945741 2.1137409
3.3612709 -0.82713139 2.1123443
3.3763893 -0.8388586 2.1166708
3.3831322 -0.84893298 2.1185994
3.3897271 -0.85901141 2.1204855
3.3621008 -0.86187768 2.1125741
3.3669028 -0.87155139 2.1139469
3.3628173 -0.87932241 2.1127751
3.3775158 -0.89119446 2.1169813
3.3812156 -0.90070009 2.1180387
3.3847055 -0.91017759 2.1190357
3.3899503 -0.92007172 2.1205354
3.3952117 -0.92999661 2.1220398
3.4269626 -0.94610202 2.1311281
3.4377263 -0.95744133 2.1342075
3.4391897 -0.9666276 2.1346245
3.4673455 -0.98222804 2.1426833
3.4845123 -0.99530756 2.1475961
3.5101111 -1.0105424 2.154923
3.5332146 -1.0252906 2.1615353
3.5292914 -1.0333927 2.1604099
3.5200825 -1.0401381 2.1577716
3.4829321 -1.0396986 2.1471334
3.4705997 -1.0454713 2.1436007
3.5150042 -1.0659657 2.1563115
3.5279064 -1.078398 2.1600032
3.5404263 -1.0907952 2.1635852
3.5277629 -1.0965 2.1599579
3.4902763 -1.0954158 2.1492238
3.5004778 -1.1071788 2.1521423
3.5056722 -1.1176122 2.1536274
3.5150547 -1.129239 2.1563115
3.504674 -1.1353573 2.1533375
3.4997818 -1.1429795 2.1519346
3.4965303 -1.1510462 2.1510019
3.4900384 -1.1581602 2.1491413
3.486805 -1.1661905 2.1482136
3.4868121 -1.1751568 2.1482136
3.4868193 -1.1841232 2.1482136
3.4794421 -1.1908804 2.1460996
3.446301 -1.1898261 2.13661
3.4250541 -1.1922208 2.1305254
3.3801603 -1.1872498 2.1176713
3.3489263 -1.1862748 2.1087275
3.3295064 -1.1888251 2.1031661
2.9278581 -1.1764096 1.988157
2.918762 -1.1807239 1.9855514
2.9138608 -1.1864836 1.9841467
2.830991 -1.1861157 1.960417
2.8082151 -1.1849989 1.9538953
2.794291 -1.1870499 1.9499078
2.7783494 -1.1882753 1.9453425
2.7600756 -1.1885413 1.9401097
2.7480834 -1.191093 1.9366753
2.7320952 -1.192059 1.932097
2.7170646 -1.1933103 1.9277925
2.6844699 -1.187695 1.9184604
2.6665044 -1.1876045 1.9133159
2.6454017 -1.186193 1.9072735
2.6220129 -1.1837715 1.9005766
2.6137631 -1.1872374 1.8982135
2.603415 -1.1898229 1.8952497
2.5937452 -1.1926279 1.8924801
2.5757499 -1.1920151 1.8873274
2.5673287 -1.1952072 1.8849154
2.5600836 -1.1988382 1.8828398
2.5566032 -1.2039839 1.8818421
2.5522649 -1.2087559 1.8805987
2.5427661 -1.2113512 1.8778782
2.5329108 -1.213748 1.8750556
2.522284 -1.2157685 1.872012
2.5104873 -1.2172366 1.8686337
2.4971385 -1.2179805 1.8648112
2.4843421 -1.2188932 1.8611467
2.4716761 -1.2197965 1.8575196
2.4506378 -1.2169898 1.851496
2.4295211 -1.2140402 1.8454498
2.4092138 -1.2113388 1.8396354
2.3783424 -1.2038519 1.8307972
2.3548431 -1.1994919 1.8240691
2.335463 -1.1968573 1.8185201
2.3239069 -1.1976504 1.8152111
2.3115835 -1.1980364 1.8116822
2.3041737 -1.200599 1.8095597
2.2256663 -1.1876849 1.787082
2.2223783 -1.1918639 1.7861396
2.220084 -1.1964942 1.7854817
2.2186677 -1.201529 1.7850749
2.2223918 -1.209006 1.7861396
2.2267885 -1.2168242 1.7873968
2.2261643 -1.2222468 1.7872169
2.2069094 -1.2186445 1.7817039
2.1747708 -1.2086712 1.7725034
2.158139 -1.2061216 1.7677414
2.1492045 -1.207273 1.7651829
2.1395023 -1.2079989 1.7624044
2.1327381 -1.2101351 1.7604671
2.1177964 -1.2081509 1.7561889
2.1104059 -1.209882 1.7540722
2.102006 -1.2110655 1.7516665
2.087893 -1.2093074 1.7476258
2.0734074 -1.2072868 1.7434784
2.0680065 -1.2098475 1.7419312
2.0723886 -1.2174194 1.7431843
2.073657 -1.2234018 1.7435461
2.0648885 -1.2241697 1.7410351
2.0482202 -1.2207626 1.736263
2.0249476 -1.2138002 1.7296004
2.0150194 -1.213763 1.7267575
2.012145 -1.2174165 1.7259336
2.4790492 1.2072073 1.8542013
2.4726868 1.1973556 1.8523927
2.4644785 1.1865358 1.8500595
2.4554191 1.175299 1.8474846
2.451756 1.1670076 1.8464426
2.4573822 1.1637013 1.8480394
2.4638438 1.16081 1.8498733
2.4670894 1.1561832 1.850794
2.4670944 1.1498321 1.850794
2.4628189 1.1412367 1.849578
2.4606314 1.1337529 1.8489553
2.4606366 1.1274185 1.8489553
2.4638741 1.122754 1.8498733
2.4679315 1.1184943 1.8510245
2.4728172 1.114637 1.8524107
2.4793596 1.111598 1.8542677
2.4875853 1.1093774 1.8566029
2.4958661 1.1071419 1.8589535
2.5042017 1.1048917 1.8613199
2.5109115 1.1017878 1.8632243
2.5227368 1.1011864 1.8665818
2.5341849 1.1003381 1.869832
2.5458603 1.0995424 1.873147
2.5588901 1.0993479 1.8768467
2.5694113 1.097868 1.8798337
2.5800192 1.0963761 1.8828454
2.5934017 1.0961623 1.8866452
2.6108985 1.0978463 1.8916135
2.6228127 1.0967863 1.894996
2.6451869 1.1006104 1.9013498
2.6646972 1.1029729 1.9068903
2.6770177 1.1018722 1.9103881
2.6949725 1.1033289 1.9154866
2.8863208 0.40463272 1.9696594
2.8833694 0.39664385 1.9688196
2.8850646 0.38953909 1.9692993
2.9000421 0.38487545 1.9735509
2.9103308 0.37928203 1.9764709
2.9083495 0.37143579 1.9759066
2.9057276 0.36348656 1.9751604
2.9085491 0.35649875 1.97596
2.9213061 0.35120109 1.9795809
2.9253793 0.34437028 1.9807359
2.9220223 0.33628199 1.9797808
2.9142203 0.32748273 1.9775636
2.9057097 0.31860942 1.9751452
2.902024 0.31054553 1.9740968
2.8986673 0.3025521 1.9731419
2.8964357 0.29474875 1.9725065
2.8997991 0.28780162 1.97346
2.9042938 0.28100511 1.9747347
2.9181743 0.27555418 1.9786747
2.9326792 0.27012128 1.9827919
2.9372764 0.26321989 1.9840956
2.9361334 0.25550213 1.9837694
2.9315519 0.24732426 1.9824665
2.9458599 0.24168155 1.9865279
2.9574749 0.23561409 1.9898244
2.9698532 0.2295844 1.9933378
2.9692438 0.22186452 1.9931629
2.9513452 0.21202701 1.9880786
2.940573 0.20313743 1.985018
2.9984093 0.13291469 2.0014241
2.9980164 0.12516192 2.0013106
2.9966259 0.11732224 2.0009141
3.0012252 0.11000872 2.0022185
3.0144916 0.10340008 2.0059838
3.0182505 0.095948443 2.0070496
3.0177367 0.088140294 2.0069017
3.0080664 0.079635873 2.0041542
3.0005364 0.071339086 2.0020142
3.083498 0.029846996 2.0255606
3.0721445 0.021278828 2.0223351
3.0560672 0.012517914 2.0177679
3.0376086 0.0037192702 2.0125251
3.0318301 -0.0043753237 2.0108824
3.0318363 -0.01217714 2.0108824
3.0392087 -0.019663066 2.012974
3.0385997 -0.027508631 2.0127993
3.0410683 -0.035234898 2.0134985
3.0386121 -0.04314702 2.0127993
3.0437236 -0.050799824 2.0142488
3.0616446 -0.058094405 2.0193355
3.0755711 -0.065590791 2.0232882
3.0870228 -0.07322038 2.0265379
3.0873916 -0.081155993 2.0266411
3.0912125 -0.089025386 2.0277243
3.095408 -0.096907996 2.0289135
3.1143134 -0.1045977 2.0342798
3.1091595 -0.11267352 2.0328145
3.0881488 -0.12087234 2.0268474
3.0929427 -0.12878601 2.0282063
3.1057475 -0.13668999 2.0318403
3.1257093 -0.14464757 2.0375066
3.1441717 -0.15270656 2.0427468
3.1404197 -0.16078426 2.0416796
3.1374254 -0.16884716 2.0408278
3.1286511 -0.17684501 2.0383344
3.1221502 -0.18482305 2.0364869
3.1202095 -0.1928302 2.035934
3.1241124 -0.20092256 2.0370405
3.1330297 -0.20912963 2.0395706
3.1326003 -0.21718207 2.0394468
3.148375 -0.22562152 2.0439239
3.1404777 -0.23351261 2.0416796
3.1448071 -0.24171962 2.0429072
3.1483946 -0.24992532 2.0439239
3.1365597 -0.2576203 2.0405619
3.1332862 -0.2655701 2.0396307
3.2384968 -0.32777977 2.0694895
3.2385035 -0.33611274 2.0694895
3.2159328 -0.36791337 2.0630739
3.213186 -0.3759945 2.0622921
3.229784 -0.38547185 2.0670028
3.2297907 -0.39378226 2.0670028
3.2353656 -0.4025273 2.068584
3.2290101 -0.41033909 2.0667772
3.1995225 -0.41619363 2.0584035
3.2022588 -0.42466024 2.0591786
3.2046094 -0.43310681 2.059844
3.219671 -0.44272113 2.0641181
3.2290432 -0.45188099 2.0667772
3.2215261 -0.45946667 2.0646415
3.2074003 -0.46636173 2.0606289
3.307682 -0.51029277 2.0890927
3.3051646 -0.5185219 2.088376
3.2951941 -0.52588797 2.0855434
3.2816732 -0.5327884 2.0817027
3.2626607 -0.53896469 2.076303
3.2624552 -0.54733354 2.0762427
3.2607844 -0.5555191 2.0757666
3.251308 -0.56270516 2.0730741
3.2627554 -0.57255226 2.0763221
3.2594559 -0.5805105 2.0753837
3.2778981 -0.59137928 2.0806177
3.2807703 -0.60020626 2.0814312
3.3019433 -0.61160648 2.0874403
3.3130538 -0.62168294 2.0905926
3.3155692 -0.63057077 2.0913048
3.3126497 -0.63866973 2.0904741
3.3097353 -0.64675444 2.0896447
3.3010092 -0.65393686 2.0871654
3.2981155 -0.66197968 2.0863419
3.2952263 -0.67000842 2.08552
3.3031046 -0.67974913 2.0877547
3.3332841 -0.69316435 2.0963209
3.3571429 -0.70568848 2.1030922
3.3752639 -0.71737099 2.1082349
3.4341011 -0.74492979 2.1249347
3.3822577 -0.77075148 2.1102085
3.3900814 -0.78090811 2.1124277
3.3986053 -0.79123724 2.1148458
3.4115574 -0.80245697 2.1185207
3.4059625 -0.81014836 2.1169305
3.3922741 -0.81622171 2.1130424
3.3951199 -0.82551408 2.1138482
3.3795717 -0.83111417 2.1094322
3.3940477 -0.84276247 2.1135399
3.4000785 -0.85273957 2.1152501
3.4173448 -0.86509883 2.1201499
3.3922324 -0.86856985 2.1130188
3.3853912 -0.8758291 2.1110744
3.3830011 -0.8840189 2.110394
3.3882434 -0.8938719 2.1118803
3.3932824 -0.90370679 2.1133089
3.4038396 -0.91480744 2.1163039
3.412689 -0.92557406 2.1188142
3.4262693 -0.93747377 2.1226676
3.4474058 -0.95119917 2.1286657
3.4601247 -0.96305549 2.1322746
3.4621074 -0.97242677 2.1328354
3.4893179 -0.98786604 2.1405578
3.5014145 -0.99977708 2.14399
3.5200286 -1.0133489 2.1492722
3.5353501 -1.0262003 2.1536195
3.5394058 -1.0363094 2.1547685
3.528481 -1.0426496 2.1516652
3.491138 -1.0421823 2.1410625
3.4889045 -1.0505854 2.1404262
3.5433331 -1.0737489 2.1558752
3.5623729 -1.0878755 2.1612782
3.5797141 -1.1016484 2.1661987
3.5666711 -1.107355 2.1624942
3.5299692 -1.106583 2.1520734
3.537009 -1.1175882 2.1540699
3.5358379 -1.1263623 2.1537354
3.5402005 -1.1366726 2.1549716
3.5440283 -1.1468548 2.1560564
3.5245442 -1.1504396 2.1505232
3.5212452 -1.1585599 2.1495848
3.5146585 -1.1657132 2.1477127
3.508096 -1.1728396 2.1458478
3.5048277 -1.1809011 2.144918
3.498302 -1.1879792 2.1430635
3.4734297 -1.1895331 2.1360011
3.4259446 -1.1841331 2.1225195
3.4039087 -1.1862363 2.1162622
3.377445 -1.1868668 2.108748
3.3430042 -1.1848915 2.0989695
3.3304272 -1.1895635 2.0953972
3.3160176 -1.1935942 2.0913048
3.3024099 -1.1978053 2.0874403
2.9823692 -1.1652931 1.9965762
2.9246902 -1.1757443 1.9801965
2.92204 -1.1823295 1.9794426
2.918638 -1.1886338 1.9784752
2.8212585 -1.183002 1.9508269
2.8042035 -1.1839688 1.945984
2.793081 -1.1870508 1.9428253
2.7792025 -1.189045 1.9388841
2.7629416 -1.190071 1.9342669
2.7526484 -1.193275 1.9313436
2.7312911 -1.1922045 1.9252795
2.7199242 -1.1948618 1.9220517
2.6800237 -1.1864259 1.9107242
2.6634586 -1.1868693 1.9060208
2.6423953 -1.1854645 1.9000404
2.6263783 -1.1859422 1.8954923
2.6144509 -1.1879607 1.8921053
2.6040928 -1.1905451 1.8891636
2.5992041 -1.1952758 1.8877746
2.5888388 -1.1977646 1.884831
2.583626 -1.2022989 1.8833497
2.5756545 -1.2056754 1.8810856
2.5686104 -1.2093935 1.8790846
2.5607314 -1.2127287 1.8768467
2.5477026 -1.2138731 1.873147
2.5352335 -1.2151858 1.8696065
2.5228863 -1.2164855 1.8661003
2.507724 -1.2165245 1.8617952
2.4932156 -1.2167654 1.8576756
2.4824452 -1.2185407 1.8546171
2.4686329 -1.2189432 1.8506953
2.4387033 -1.2122543 1.8421985
2.4158554 -1.2085142 1.835712
2.3915043 -1.2039944 1.8287989
2.3660398 -1.1988554 1.8215697
2.3533318 -1.1992733 1.8179612
2.3446577 -1.201435 1.815498
2.33584 -1.2034872 1.8129938
2.314019 -1.1995958 1.8067989
2.3060098 -1.2018926 1.8045242
2.2207546 -1.1858442 1.7803208
2.2183533 -1.1904281 1.7796378
2.2171571 -1.1955678 1.779297
2.2168341 -1.2011158 1.7792041
2.2220871 -1.2093201 1.7806938
2.2258246 -1.2168249 1.7817533
2.2252007 -1.2222475 1.781575
2.2170703 -1.2240303 1.779266
2.2023103 -1.2225426 1.7750754
2.1634202 -1.2091652 1.7640361
2.1523795 -1.2092944 1.7609013
2.1422367 -1.2098106 1.7580212
2.1336319 -1.2110395 1.7555777
2.1190984 -1.2092607 1.7514515
2.1156056 -1.2129544 1.750459
2.1245794 -1.2229258 1.7530047
2.1169775 -1.2245296 1.7508458
2.0917816 -1.2171192 1.7436935
2.0764441 -1.2146335 1.7393391
2.0673633 -1.2152929 1.7367606
2.0663922 -1.2201054 1.7364837
2.0620189 -1.2231423 1.7352413
2.0455983 -1.2198558 1.7305796
2.0265682 -1.2151134 1.7251773
2.0184786 -1.2160515 1.7228801
2.0151124 -1.2194543 1.7219236
2.4974663 1.217882 1.8534005
2.4878762 1.2062193 1.8506978
2.4700558 1.1901408 1.8456774
2.4619517 1.1794004 1.8433936
2.4563119 1.1700264 1.8418038
2.4627707 1.1671518 1.8436213
2.4692631 1.1642621 1.8454484
2.47334 1.1600595 1.8465953
2.473345 1.1536896 1.8465953
2.4682333 1.1446358 1.845154
2.467658 1.1379763 1.8449907
2.4692883 1.1324651 1.8454484
2.4741814 1.1286319 1.846825
2.481555 1.1260489 1.8489003
2.4864967 1.1221838 1.8502908
2.4931149 1.1191466 1.8521532
2.5014362 1.1169378 1.8544953
2.5064576 1.1130234 1.8559079
2.5131824 1.1099372 1.8578006
2.5182509 1.1059904 1.8592266
2.5267408 1.1037149 1.8616161
2.5352881 1.101424 1.8640218
2.5482152 1.1012399 1.8676612
2.561275 1.1010538 1.8713377
2.5735855 1.1004366 1.8748033
2.584233 1.0989521 1.8778005
2.5943272 1.0971469 1.8806418
2.6082103 1.0971013 1.8845502
2.6167097 1.0944237 1.8869423
2.638459 1.0979697 1.8930659
2.6559961 1.099422 1.8980033
2.6672466 1.0978431 1.9011705
2.6886539 1.1009315 1.9071977
2.6969097 1.0978248 1.9095213
2.9089558 0.38675115 1.9690577
2.9089618 0.37926146 1.9690577
2.9074645 0.37150213 1.9686344
2.9256141 0.36722389 1.9737428
2.9269519 0.35992339 1.9741179
2.9329796 0.35342106 1.9758135
2.9347887 0.34617445 1.976321
2.9321725 0.33818179 1.9755828
2.9254537 0.32953006 1.9736893
2.930408 0.3227964 1.9750826
2.9302273 0.31522194 1.9750299
2.9289255 0.30747342 1.9746618
2.9154344 0.2978591 1.9708614
2.9143076 0.29018185 1.9705427
2.9143136 0.28267857 1.9705427
2.926338 0.27692866 1.9739265
2.9483061 0.272542 1.98011
2.9565017 0.26610386 1.9824159
2.9591734 0.25886032 1.9831663
2.9556816 0.25076732 1.9821815
2.96562 0.24447879 1.984978
2.9720044 0.23767552 1.9867738
2.9833233 0.23147035 1.989959
2.9829056 0.22373644 1.9898397
2.9958944 0.1559397 1.9934812
2.9863596 0.14727691 1.9907949
2.98399 0.13935807 1.990126
2.9947169 0.13268775 1.9931445
2.9939265 0.12490463 1.9929202
2.9959252 0.11737457 1.9934812
3.0023263 0.11021578 1.9952815
3.019249 0.10390893 2.0000443
3.0279019 0.096840829 2.0024788
3.0310538 0.089293882 2.0033643
3.0261693 0.081116945 2.0019875
3.0209761 0.072942436 2.0005236
3.0446041 0.066847444 2.007174
3.0595107 0.060032085 2.011369
3.0745635 0.0531497 2.0156052
3.0872226 0.046037793 2.0191674
3.10255 0.039023325 2.0234809
3.0936005 0.030513391 2.0209594
3.0863945 0.022146851 2.018929
3.0747752 0.013582602 2.015656
3.0585747 0.0048463047 2.0110931
3.050231 -0.0034290105 2.0087423
3.0459909 -0.011474714 2.0075469
3.0502434 -0.019134179 2.0087423
3.0496297 -0.027011745 2.0085678
3.0546029 -0.034675211 2.0099661
3.0521238 -0.042626411 2.0092664
3.0583513 -0.050280936 2.0110178
3.0797005 -0.057513371 2.0170267
3.0928872 -0.065079801 2.0207374
3.0993433 -0.072881594 2.022553
3.0898669 -0.081072003 2.0198834
3.0911462 -0.089001328 2.0202417
3.0979602 -0.096842244 2.0221581
3.1232078 -0.10444938 2.0292645
3.1207397 -0.11251933 2.0285678
3.1072667 -0.12068038 2.0247729
3.1051297 -0.12869427 2.0241694
3.1020486 -0.13670115 2.0233002
3.1173384 -0.14466067 2.0276029
3.1385834 -0.15270402 2.0335822
3.1387773 -0.16078438 2.0336349
3.149797 -0.16893077 2.0367355
3.1412625 -0.176966 2.0343308
3.1312172 -0.1849404 2.0315013
3.1299174 -0.19298315 2.0311334
3.1338458 -0.20110445 2.0322375
3.1474378 -0.20942838 2.0360622
3.1470044 -0.21752134 2.0359383
3.1576066 -0.22587723 2.0389211
3.1602733 -0.23407654 2.03967
3.1692433 -0.24247348 2.0421934
3.1665471 -0.25054613 2.0414326
3.1561146 -0.25833929 2.0384936
3.14621 -0.2660982 2.0357039
3.1985698 -0.27626395 2.050442
3.2450874 -0.31986672 2.0635281
3.2525976 -0.32863235 2.0656402
3.2535446 -0.33705926 2.0659049
3.2507315 -0.34526521 2.0651114
3.2507381 -0.35363322 2.0651114
3.2535646 -0.36218515 2.0659049
3.235332 -0.369324 2.0607705
3.2376657 -0.37781608 2.0614257
3.244072 -0.38661718 2.0632269
3.2419422 -0.39480668 2.0626259
3.2414155 -0.4031103 2.0624757
3.2371602 -0.41111043 2.061276
