# .PCD v0.7 - Point Cloud Data file format
VERSION 0.7
FIELDS x y z
SIZE 4 4 4
TYPE F F F
COUNT 1 1 1
WIDTH 1461
HEIGHT 1
VIEWPOINT 0 0 0 1 0 0 0
POINTS 1461
DATA ascii
3.0405743 0.67732847 0.029209018
3.060637 0.67398536 0.021816373
3.0850089 0.67167473 0.012834907
3.0934052 0.66501474 0.0097427368
3.1149592 0.66173553 0.0018002987
3.1320207 0.65717435 -0.0044859648
3.1376007 0.64958918 -0.0065401793
3.1508114 0.64389467 -0.011407018
3.1514947 0.63500381 -0.011656404
3.1591246 0.6278193 -0.014466047
3.1650858 0.62018502 -0.01666081
3.1685054 0.61190534 -0.017918468
3.1488497 0.59812355 -0.010670781
3.1410043 0.58722687 -0.0077761412
3.1359842 0.5770303 -0.005923152
3.1498563 0.57118833 -0.011033773
3.1651294 0.56558323 -0.01666081
3.1805513 0.55992365 -0.022342443
3.2235863 0.56025946 -0.038202405
3.264776 0.55994642 -0.053382039
3.2820261 0.55425966 -0.059737563
3.2877707 0.54603803 -0.061852217
3.2919214 0.53745043 -0.063379288
3.3199751 0.53376186 -0.073716998
3.3632805 0.53300941 -0.089676023
3.3714066 0.52496493 -0.092668414
3.3801386 0.51699328 -0.095884204
3.3809569 0.50743258 -0.096182823
3.3807213 0.49766544 -0.096093178
3.3860848 0.48895612 -0.098067284
3.3824391 0.478542 -0.096720815
3.4047337 0.47289452 -0.10493529
3.4225841 0.4663187 -0.11151183
3.4542706 0.46209195 -0.12318814
3.5253222 0.46454528 -0.14937365
3.6094484 0.46883163 -0.18037808
3.6596868 0.46692166 -0.19889188
3.6708369 0.45824608 -0.20299852
3.6668377 0.44703981 -0.2015214
3.6708536 0.43713853 -0.20299852
3.6717222 0.42671987 -0.2033155
3.6852551 0.41824892 -0.20830023
3.6790025 0.40670648 -0.20599258
3.656425 0.39277658 -0.19766819
3.5628076 0.36863533 -0.16315997
3.5283334 0.35347185 -0.15045071
3.5017567 0.33961093 -0.1406523
3.5337029 0.3339172 -0.15242374
3.6438117 0.33851892 -0.19300365
3.6922672 0.33439901 -0.21085989
3.7131505 0.32646254 -0.21855366
3.693831 0.31336284 -0.21142995
3.6951938 0.30290937 -0.2119292
3.6784375 0.2902793 -0.20575035
3.6870983 0.28071481 -0.20893919
3.6952193 0.27103904 -0.2119292
3.6982789 0.26075447 -0.21305382
3.7013438 0.25045291 -0.21418035
3.6926334 0.23889369 -0.21096683
3.6716907 0.22613147 -0.20324504
3.6580372 0.21421552 -0.19820976
3.6300437 0.20099163 -0.18788946
3.6187851 0.18949869 -0.18373692
3.6040943 0.1777584 -0.17831933
3.5887001 0.16604069 -0.17264271
3.5812125 0.15508512 -0.16988015
3.5802469 0.1447095 -0.16952121
3.5577738 0.13263091 -0.16123557
3.5324469 0.1204631 -0.15189826
3.5353231 0.11051932 -0.15295541
3.5390561 0.10061964 -0.15432799
3.5596013 0.091840819 -0.16189718
3.5621259 0.081771389 -0.16282463
3.5659156 0.071766153 -0.16421831
3.5583689 0.061066747 -0.16143394
3.5644183 0.051178157 -0.16366041
3.5740705 0.041447803 -0.16721475
3.5746224 0.031200707 -0.16741502
3.5796366 0.021163866 -0.16926014
3.5439293 0.0092681646 -0.15609729
3.5211177 -0.001879707 -0.1476872
3.5050299 -0.012632862 -0.14175522
3.5048056 -0.022717372 -0.14166963
3.5264227 -0.032070123 -0.14963341
3.5484266 -0.041535281 -0.15773976
3.5621421 -0.05135645 -0.16279149
3.5520163 -0.061848097 -0.15905678
3.5434604 -0.072247051 -0.15590036
3.5606382 -0.082106046 -0.16222823
3.5808895 -0.092014007 -0.16968858
3.5960491 -0.10210617 -0.17527235
3.6113367 -0.11228409 -0.18090343
3.5994294 -0.12275572 -0.176512
3.5933261 -0.13313159 -0.17425978
3.5648258 -0.14351307 -0.16375339
3.5542374 -0.15374956 -0.15984821
3.5342131 -0.16388802 -0.1524657
3.5379434 -0.17407297 -0.15383744
3.5422149 -0.18428454 -0.15540874
3.5566885 -0.1946487 -0.16073966
3.5623543 -0.20496012 -0.16282463
3.5473156 -0.21492514 -0.15727949
3.5324035 -0.22480632 -0.15178096
3.5205126 -0.23467439 -0.14739585
3.5276501 -0.24498644 -0.15002334
3.5537047 -0.25590318 -0.15962195
3.5934329 -0.26741648 -0.17425966
3.601145 -0.27801996 -0.17709887
3.5967469 -0.2882024 -0.175475
3.5808723 -0.29788554 -0.16962171
3.5574059 -0.30714205 -0.16097105
3.5567863 -0.31733847 -0.16073966
3.5750895 -0.32847592 -0.16748166
3.5749166 -0.33874309 -0.1674149
3.5705824 -0.34877756 -0.16581464
3.5752051 -0.35931146 -0.16751516
3.5892644 -0.37045151 -0.17269325
3.592334 -0.38096571 -0.17382133
3.6041059 -0.39208207 -0.1781565
3.627166 -0.40405664 -0.18665135
3.6234481 -0.41421121 -0.1852783
3.6357813 -0.42556089 -0.18981993
3.6357896 -0.43601188 -0.18981993
3.6346741 -0.44637123 -0.1894058
3.6377745 -0.45708004 -0.19054544
3.6318839 -0.4670217 -0.18837154
3.6237772 -0.47672972 -0.18538105
3.6363935 -0.4883191 -0.19002724
3.6192656 -0.4971281 -0.18371248
3.5977063 -0.5054009 -0.17576468
3.5823691 -0.51418227 -0.17010987
3.5631471 -0.52246928 -0.16302359
3.560997 -0.53247941 -0.16222823
3.5699632 -0.54370314 -0.16552937
3.6012101 -0.55749953 -0.1770407
3.6269257 -0.57083368 -0.18651378
3.671669 -0.58657801 -0.20299852
3.6927209 -0.59969443 -0.21075308
3.714309 -0.61299866 -0.21870482
3.7225485 -0.62472463 -0.2217381
3.7140329 -0.63431299 -0.21859694
3.7102325 -0.64448082 -0.21719348
3.6959553 -0.65320039 -0.2119292
3.6858268 -0.66241455 -0.20819378
3.6777654 -0.67186368 -0.20522022
3.6637363 -0.68040264 -0.20004761
3.6537833 -0.68946266 -0.19637692
3.6326272 -0.69677913 -0.18857813
3.6333842 -0.70733535 -0.18885386
3.6557968 -0.72127974 -0.19710958
3.6524792 -0.73125827 -0.19588411
3.6769614 -0.74572182 -0.20490229
3.6598041 -0.75345993 -0.19857705
3.6490233 -0.76216912 -0.19460142
3.6360559 -0.77044332 -0.18981993
3.628211 -0.77953172 -0.18692625
3.6310201 -0.79045415 -0.18795824
3.6488681 -0.80408847 -0.1945318
3.6462362 -0.81409538 -0.19355905
3.6592929 -0.82698953 -0.19836712
3.6632917 -0.83825696 -0.19983733
3.6758966 -0.85118878 -0.20447886
3.7001948 -0.86645734 -0.21342909
3.725112 -0.88198698 -0.22260725
3.7491705 -0.89748871 -0.23146904
3.7581658 -0.9100821 -0.23478043
3.7485902 -0.91891789 -0.23124886
3.723475 -0.92446637 -0.22199154
3.7054927 -0.93137455 -0.21536243
3.6880691 -0.93829882 -0.20893919
3.6799984 -0.94714892 -0.2059623
3.6800067 -0.95772576 -0.2059623
3.6800153 -0.96830273 -0.2059623
3.6840589 -0.97978842 -0.2074492
3.6921642 -0.99222398 -0.21043265
3.6921728 -1.0028358 -0.21043265
3.6968236 -1.0145332 -0.21214318
3.7166953 -1.0298605 -0.21946204
3.7249448 -1.0425173 -0.22249854
3.7373836 -1.0562372 -0.22707856
3.7332392 -1.06596 -0.22554839
3.7291045 -1.0756612 -0.22402179
3.7146831 -1.0827556 -0.21870482
3.6631672 -1.0803461 -0.1997205
3.668118 -1.0921438 -0.20154154
3.6863737 -1.1074253 -0.20826471
3.6965213 -1.1206826 -0.21200061
3.7342873 -1.1413301 -0.22591257
3.7443626 -1.1547638 -0.22962165
3.7640865 -1.1708723 -0.23688579
3.7354 -1.1738255 -0.22631311
3.7144663 -1.1787609 -0.21859694
3.7103729 -1.1882886 -0.2170856
3.7238929 -1.202772 -0.2220639
3.7404838 -1.2182101 -0.22817361
3.7500343 -1.2317127 -0.23168933
3.7458622 -1.2412723 -0.23014903
3.7416995 -1.2508107 -0.22861207
3.7375462 -1.2603278 -0.22707856
3.7334015 -1.2698238 -0.22554839
3.7251325 -1.2780466 -0.22249854
3.7227824 -1.2880317 -0.22162962
3.7275109 -1.3001871 -0.22336853
3.725158 -1.3101643 -0.22249854
3.7304835 -1.3225417 -0.22445762
3.7304921 -1.3332628 -0.22445762
3.7417767 -1.3475928 -0.22861207
3.741785 -1.3583465 -0.22861207
3.7411988 -1.3689061 -0.22839284
3.727334 -1.3750982 -0.2232815
3.7225645 -1.3842261 -0.22152102
3.7163973 -1.3928587 -0.21924567
3.7046983 -1.3995906 -0.21493232
3.6985903 -1.4081568 -0.21267879
3.6945319 -1.4173909 -0.21118045
3.6971536 -1.4289124 -0.21214318
3.7217319 -1.4481074 -0.22119534
3.7537143 -1.4700471 -0.2329756
3.7791541 -1.489851 -0.24234498
3.792568 -1.5055029 -0.24728405
3.7925768 -1.5164021 -0.24728405
3.7896178 -1.5262237 -0.24619067
3.7781479 -1.5329129 -0.2419616
3.7391462 -1.5293795 -0.22758925
3.7377687 -1.5396098 -0.22707856
3.7277069 -1.5465786 -0.22336853
3.7182872 -1.5537318 -0.21989501
3.6937718 -1.5550885 -0.21085989
3.6400483 -1.5451103 -0.191064
3.5995786 -1.5399407 -0.17615116
3.5865059 -1.5451964 -0.17133188
3.5985856 -1.5602338 -0.17577922
3.6327734 -1.5840678 -0.18837154
3.4746227 -1.5615643 -0.13009465
3.457154 -1.5643995 -0.12365592
3.4396367 -1.5671141 -0.11719954
3.4169939 -1.5676014 -0.10885477
3.3602169 -1.5536996 -0.087934732
3.3444586 -1.5567244 -0.082126379
3.3326206 -1.5613189 -0.077762365
3.3236811 -1.5670812 -0.074466228
3.2630341 -1.5505975 -0.052120805
3.1683435 -1.5190549 -0.017233491
3.1104054 -1.502955 0.0041137934
3.0905249 -1.5031852 0.011440516
3.0905318 -1.5120662 0.011440516
3.0801525 -1.51634 0.015267015
3.0689073 -1.5201677 0.01941216
3.0535769 -1.5220947 0.025062561
3.0247247 -1.517819 0.035694242
2.9959674 -1.5134207 0.046290994
2.9701252 -1.5101923 0.05581367
2.95818 -1.5132192 0.060216784
2.9404373 -1.5134896 0.066755652
2.8527229 -1.4810107 0.099071622
2.8455975 -1.4858602 0.10169899
2.8406787 -1.4917109 0.10351336
2.8311126 -1.4953249 0.10703993
2.8239818 -1.5000483 0.10966921
2.8206022 -1.5065346 0.1109165
2.8263698 -1.5174271 0.10879421
2.8345501 -1.5295267 0.1057831
2.872515 -1.5562546 0.091799617
2.8951478 -1.5756505 0.083464503
2.8947976 -1.5837933 0.083595872
2.89623 -1.5928218 0.083070636
2.9015353 -1.603799 0.081118703
2.9083579 -1.6155713 0.078607917
2.9134073 -1.626484 0.076750159
2.9083712 -1.6322856 0.078607917
2.889622 -1.63103 0.085517049
2.878315 -1.633502 0.089684844
2.8663971 -1.6355926 0.094077587
2.8523278 -1.6364934 0.099262834
2.8471563 -1.6419761 0.10117042
2.8271461 -1.6396104 0.10854399
2.8001752 -1.6334424 0.11848187
2.7810369 -1.6312913 0.12553442
2.7690406 -1.6328549 0.12995565
2.7131839 -1.6419067 0.15054333
2.6947703 -1.6395211 0.15732861
2.6922891 -1.6458821 0.15824497
2.670747 -1.6415837 0.16618264
2.6218398 -1.6217996 0.18420064
2.6068349 -1.6208637 0.18973017
2.6009328 -1.6250036 0.19190645
2.6117671 -1.6386487 0.18791771
2.6238618 -1.6530783 0.18346471
2.6034319 -1.6563292 0.19099468
2.5622945 -1.6398863 0.20615029
2.5349214 -1.63125 0.2162357
2.5168028 -1.6278908 0.22291195
2.5062177 -1.6288731 0.22681308
2.5062234 -1.6360743 0.22681308
2.5043619 -1.6421627 0.22750103
2.5043676 -1.6493585 0.22750103
2.5062408 -1.6576777 0.22681308
2.5025144 -1.6626228 0.22818792
2.500658 -1.6686825 0.22887373
2.4950943 -1.6724691 0.23092532
2.4858725 -1.6739813 0.23432422
2.473984 -1.6737978 0.23870546
2.4613073 -1.6730582 0.24337703
2.4492695 -1.6726431 0.24781322
2.4416494 -1.6749178 0.25062215
2.4319379 -1.6758366 0.25420141
2.4249249 -1.6784003 0.2567867
2.4214363 -1.6831553 0.25807375
2.4179578 -1.6878966 0.25935709
2.4179633 -1.6948439 0.25935709
2.4136279 -1.6990051 0.26095605
2.4146242 -1.7065786 0.26059115
2.4499011 -1.7363553 0.24759912
2.4664872 -1.7541779 0.24149191
2.4884059 -1.7755798 0.23342037
2.4922781 -1.7852662 0.23199624
2.4841263 -1.7870508 0.23500097
2.4723847 -1.7864131 0.23932797
2.4604964 -1.78561 0.24370885
2.4551101 -1.7890798 0.24569494
2.4497473 -1.7925342 0.24767226
2.4444082 -1.7959734 0.24964094
2.4395978 -1.7997398 0.25141484
2.4390979 -1.8064055 0.2516011
2.4417613 -1.8152261 0.25062215
2.4488831 -1.8271151 0.24800098
2.4627309 -1.8436704 0.24290252
2.4699755 -1.8557453 0.2402361
2.4673045 -1.8609855 0.24122202
2.4736226 -1.8724698 0.23889697
2.4818971 -1.8853583 0.23585135
2.5012012 -1.9060379 0.22874326
2.5165966 -1.924073 0.22307479
2.5277262 -1.9391768 0.21897775
2.5329022 -1.9501135 0.21707332
2.5367312 -1.9601187 0.21566522
2.5367372 -1.9674067 0.21566522
2.5312846 -1.9707687 0.21767557
2.5152347 -1.966446 0.22358918
2.4995639 -1.9623063 0.22936308
2.4866252 -1.960065 0.23413074
2.4842684 -1.9654822 0.23500097
2.4861114 -1.9739677 0.23432422
2.4934943 -1.9865438 0.23160708
2.5046482 -2.0019507 0.22750103
2.5102656 -2.0133119 0.22543418
2.5140266 -2.0233216 0.22405112
2.515914 -2.0319519 0.22335804
2.5161889 -2.039382 0.22325897
2.527909 -2.0554411 0.21894437
2.5435829 -2.0745583 0.21317369
2.5527873 -2.0888524 0.2097857
2.560015 -2.101692 0.2071259
2.5668631 -2.1142826 0.20460582
2.5707953 -2.1246729 0.20315975
2.5781255 -2.1377053 0.20046228
2.5856388 -2.1509216 0.19769716
2.5909593 -2.1624782 0.19573975
2.590965 -2.1699216 0.19573975
2.5766766 -2.1661799 0.20100451
2.5582757 -2.1591265 0.2077837
2.5447705 -2.1558266 0.21275997
2.5297284 -2.1512332 0.21830201
2.5180795 -2.1492472 0.2225945
2.5087688 -2.1490579 0.2260257
2.5029037 -2.1515698 0.22818792
2.498657 -2.1553476 0.22975409
2.4856408 -2.1520374 0.23454994
2.4770985 -2.1522686 0.23769814
2.4716399 -2.1549525 0.23971057
2.4631073 -2.1551025 0.24285507
2.4457893 -2.148026 0.24923539
2.4234595 -2.1367419 0.25746131
2.4111147 -2.133544 0.26200974
2.4190192 -2.1469913 0.25910068
2.1350787 0.87975943 0.35641706
2.1505883 0.88104975 0.35065413
2.1523664 0.87570727 0.34999502
2.1575103 0.87194884 0.34808499
2.1626124 0.86814106 0.34619045
2.1682055 0.86453366 0.34411335
2.1770504 0.86240637 0.34082776
2.201205 0.86730373 0.33185178
2.2096844 0.86486268 0.32870203
2.2270041 0.86640751 0.32226658
2.2453122 0.86830115 0.31546366
2.266763 0.87150562 0.30749273
2.277535 0.86980498 0.303491
2.2872965 0.86759269 0.29986489
2.2886829 0.86162245 0.29935157
2.3031137 0.86137259 0.2939899
2.3130386 0.859074 0.29030299
2.321481 0.85607564 0.28716719
2.3406432 0.8576436 0.28004706
2.3471956 0.85370922 0.27761364
2.3521354 0.84905231 0.2757796
2.3752058 0.85201538 0.26720709
2.3850164 0.84929001 0.26356292
2.3919013 0.8452909 0.26100606
2.4089918 0.84546947 0.25465608
2.413038 0.84019697 0.25315428
2.4182591 0.83537996 0.25121582
2.4165237 0.82771826 0.25186288
2.4182701 0.82146537 0.25121582
2.4226394 0.81624842 0.24959409
2.4314196 0.81275296 0.24633288
2.4487832 0.8125813 0.23988146
2.4785817 0.81716168 0.22880858
2.4895301 0.8142693 0.2247417
2.5081379 0.81425881 0.21782798
2.5275698 0.81445551 0.21060812
2.5415189 0.81246412 0.20542598
2.5616133 0.81270206 0.19796002
2.5888081 0.81547236 0.18785512
2.607054 0.81477463 0.18107605
2.6244342 0.81365407 0.1746189
2.6604958 0.81923914 0.16121864
2.6755483 0.8170234 0.15562665
2.6896429 0.81437767 0.15039062
2.7020211 0.8110404 0.1457926
2.7216403 0.81018627 0.13850343
2.7427201 0.80973053 0.13067162
2.766624 0.8101337 0.12179005
2.7820258 0.80747318 0.11606824
2.7902913 0.80228853 0.11299884
2.7999399 0.79752433 0.10941529
2.8099918 0.79284 0.10568202
2.81865 0.78763402 0.1024667
2.831336 0.78370678 0.097754359
2.8354914 0.77691793 0.096212506
2.8633211 0.77777612 0.085872173
2.8642583 0.76983786 0.085526347
2.8612192 0.76062858 0.086658239
2.8589282 0.75167286 0.087512136
2.8642199 0.74510014 0.085548043
2.9083636 0.75052679 0.069145083
2.9279394 0.7481631 0.061872363
2.9491785 0.74619222 0.053981662
2.9464324 0.73687959 0.055004716
2.9592407 0.73221993 0.050247192
2.9651287 0.72544348 0.04806149
2.9871235 0.72334218 0.03989017
3.0010555 0.71878028 0.034715056
2.9941468 0.70816493 0.037285089
2.9996324 0.70110631 0.035249114
3.0101604 0.69543219 0.031339049
3.0228634 0.69030213 0.026620984
3.0379162 0.68574548 0.021029472
3.0324347 0.67551231 0.023069143
3.0425191 0.66950333 0.019324064
3.0841706 0.67184818 0.0038479567
3.1055281 0.66860402 -0.0040863752
3.1239765 0.66447842 -0.010939598
3.1353772 0.65842962 -0.015173554
3.1402726 0.65065658 -0.016990066
3.1560533 0.64559948 -0.022851944
3.1539149 0.63598597 -0.022054553
3.1485693 0.62559474 -0.020065427
3.1506867 0.61705136 -0.020849586
3.1619999 0.610708 -0.025050998
3.1494346 0.59862375 -0.020378947
3.1470516 0.58900273 -0.019490719
3.1403301 0.57838929 -0.016990066
3.1483312 0.57118702 -0.019960761
3.1576455 0.56423581 -0.023419499
3.170433 0.55800676 -0.028168797
3.2056165 0.55664098 -0.041240573
3.2451701 0.5560236 -0.055936337
3.2715316 0.55234671 -0.065729856
3.2793005 0.54457986 -0.068614006
3.2806811 0.53543377 -0.069124222
3.3085568 0.531739 -0.079480171
3.3545978 0.53157485 -0.096586347
3.352946 0.52159297 -0.095969796
3.3659205 0.51450813 -0.10078824
3.3623965 0.50413895 -0.09947598
3.3621635 0.49442092 -0.099386573
3.3727875 0.48675391 -0.10333145
3.3808014 0.47854069 -0.10630667
3.3927674 0.47100475 -0.11075032
3.4134736 0.46497449 -0.1184417
3.4329283 0.45860347 -0.12566829
3.4792969 0.45681444 -0.14289582
3.5502908 0.45898268 -0.16927385
3.6410339 0.46407321 -0.20299041
3.6627693 0.45720187 -0.2110641
3.6559398 0.44555238 -0.20852315
3.6647446 0.43644395 -0.21179187
3.6793289 0.42819318 -0.21720827
3.6973791 0.42039326 -0.22391236
3.6973877 0.40975812 -0.22391236
3.6639616 0.39415738 -0.21148849
3.6033413 0.37478849 -0.1889596
3.5536852 0.35733369 -0.17050493
3.520977 0.34253541 -0.15834796
3.6078701 0.34431186 -0.19063318
3.6739318 0.34279427 -0.21517766
3.7232213 0.33869514 -0.23348963
3.7303216 0.32889634 -0.23612487
3.7138245 0.31609514 -0.22999167
3.6974723 0.30340669 -0.22391236
3.6812639 0.2908296 -0.21788657
3.6853132 0.28071338 -0.21938801
3.6853218 0.27011326 -0.21938801
3.6802804 0.25895196 -0.21751153
3.6752529 0.24782127 -0.21564043
3.6586685 0.23550189 -0.20947492
3.6420457 0.22327393 -0.20329511
3.637028 0.21229771 -0.20142758
3.6295938 0.20111671 -0.19866216
3.6170332 0.18949729 -0.19399178
3.5844016 0.17612401 -0.18186378
3.5679035 0.16436008 -0.17573059
3.5565729 0.15313143 -0.17151749
3.5509386 0.14243722 -0.16942084
3.5298803 0.13054952 -0.1615932
3.5023241 0.1182853 -0.15135121
3.5077686 0.10861266 -0.15337121
3.5188057 0.099304974 -0.15746927
3.5492814 0.091255084 -0.16878986
3.5566299 0.081524491 -0.17151749
3.5604098 0.071529612 -0.17291868
3.5491269 0.060619161 -0.16872346
3.5551481 0.050750747 -0.17095768
3.5690851 0.04127197 -0.17613304
3.5823309 0.031678036 -0.18105161
3.5768871 0.021113858 -0.17902601
3.534755 0.0089314431 -0.16336846
3.4963765 -0.0028505921 -0.14910555
3.4797328 -0.01355961 -0.14291847
3.4877448 -0.02327697 -0.14589238
3.5042944 -0.032754719 -0.15203857
3.5247238 -0.042208984 -0.15962613
3.5491271 -0.051670633 -0.16869032
3.5390701 -0.062128209 -0.16495061
3.5287168 -0.072534412 -0.16110075
3.5481691 -0.082312413 -0.1683253
3.5842505 -0.091932848 -0.18172836
3.6053355 -0.10196062 -0.18955934
3.6053436 -0.11232984 -0.18955934
3.5543344 -0.12308539 -0.17060387
3.5473938 -0.13334051 -0.16802227
3.5432255 -0.14355062 -0.16647041
3.5375452 -0.15373512 -0.16435695
3.5325022 -0.16388938 -0.16248024
3.5325103 -0.17404899 -0.16248024
3.5325184 -0.1842086 -0.16248024
3.5399752 -0.19446176 -0.1652478
3.5381184 -0.20461401 -0.16455472
3.5195825 -0.21445011 -0.15766501
3.4968126 -0.22408983 -0.14920211
3.4833465 -0.23382241 -0.14419591
3.4990673 -0.24426377 -0.15003383
3.5469687 -0.25575501 -0.16782796
3.5873077 -0.2672745 -0.18281233
3.5994017 -0.27802134 -0.18730271
3.595006 -0.28820378 -0.18566644
3.5835042 -0.2980673 -0.18139017
3.5758798 -0.30803597 -0.1785543
3.5663927 -0.31787306 -0.17502654
3.5645077 -0.32803524 -0.1743232
3.5607359 -0.33808684 -0.17291868
3.560744 -0.34832725 -0.17291868
3.5718451 -0.35921741 -0.1770401
3.5856116 -0.37033519 -0.18215168
3.5829322 -0.38047418 -0.18115318
3.5908046 -0.39130682 -0.18407488
3.6175983 -0.4035106 -0.19402635
3.6186273 -0.41398889 -0.19440567
3.6300926 -0.42526436 -0.19866216
3.6261809 -0.43539554 -0.19720566
3.6128123 -0.44473267 -0.19223595
3.6045101 -0.45442078 -0.18914855
3.5951459 -0.46396828 -0.18566644
3.5833704 -0.4732444 -0.1812886
3.5995669 -0.48505649 -0.18730271
3.6030695 -0.49574354 -0.18860114
3.5891404 -0.50472784 -0.18342292
3.5738685 -0.51349545 -0.1777463
3.5414791 -0.52038491 -0.16571009
3.5314665 -0.52949268 -0.16198719
3.5349267 -0.54002941 -0.16326976
3.5598288 -0.55301338 -0.17251813
3.5850842 -0.56618154 -0.18189776
3.6239488 -0.58111393 -0.19633329
3.6417556 -0.5937041 -0.20294559
3.6759348 -0.60843849 -0.21564043
3.688055 -0.62055492 -0.22013998
3.6877739 -0.63112319 -0.22003257
3.6860476 -0.6414969 -0.21938801
3.6679378 -0.649629 -0.21265697
3.6539772 -0.65823412 -0.20746732
3.6545537 -0.66882253 -0.20767844
3.6364698 -0.67671156 -0.20095718
3.6241436 -0.68534708 -0.19637489
3.6011105 -0.69229913 -0.18781495
3.597261 -0.70206285 -0.18638182
3.6049931 -0.71361494 -0.18925118
3.6008594 -0.72332239 -0.18771255
3.6205566 -0.73686874 -0.19502687
3.6323137 -0.74921858 -0.19939148
3.6345682 -0.76004088 -0.20022607
3.6342959 -0.77044463 -0.20012176
3.6303754 -0.78021371 -0.19866216
3.6371241 -0.79184294 -0.20116627
3.6499333 -0.80459774 -0.20592153
3.6161194 -0.80893052 -0.19335687
3.6186721 -0.81980002 -0.1943022
3.6360323 -0.8334676 -0.20074821
3.6643806 -0.84933197 -0.21127617
3.682183 -0.86331642 -0.21788657
3.7033651 -0.87806761 -0.22575223
3.7141988 -0.89087629 -0.22977364
3.7147942 -0.90167558 -0.22999167
3.7054338 -0.91043508 -0.22651124
3.6808798 -0.91597891 -0.21738672
3.6713071 -0.92454219 -0.21382737
3.6661623 -0.93399727 -0.21191323
3.6661706 -0.94453955 -0.21191323
3.6701858 -0.9559617 -0.21340156
3.6633308 -0.96498859 -0.21085203
3.6436551 -0.97108686 -0.20353973
3.6468666 -0.98229527 -0.20472968
3.6529198 -0.99417889 -0.2069751
3.6761589 -1.0101182 -0.21560478
3.6985309 -1.0259858 -0.22391236
3.7026172 -1.0375986 -0.22542727
3.7026258 -1.0482454 -0.22542727
3.6944878 -1.0568925 -0.22240102
3.6863854 -1.0655017 -0.21938801
3.674294 -1.0730621 -0.21489322
3.6337879 -1.0733328 -0.19984341
3.641489 -1.0857586 -0.20270097
3.6545177 -1.0996127 -0.20753765
3.6705029 -1.1143185 -0.21347249
3.7007506 -1.1329043 -0.22470546
3.690727 -1.1408522 -0.22097886
3.7014616 -1.1543752 -0.22496307
3.6884856 -1.1614578 -0.22013998
3.6801217 -1.1697438 -0.21702993
3.6905293 -1.1832371 -0.22089279
3.7002192 -1.1965872 -0.22448909
3.6986749 -1.2067832 -0.22391236
3.7209296 -1.2238384 -0.23217595
3.7121248 -1.2319688 -0.22890198
3.7150664 -1.2435058 -0.22999167
3.7109699 -1.2529681 -0.22846687
3.7027953 -1.2611827 -0.22542727
3.6946568 -1.2693613 -0.22240102
3.696408 -1.2805177 -0.22304833
3.7051551 -1.2938439 -0.22629428
3.7022464 -1.3035885 -0.22521055
3.6904376 -1.3105177 -0.22082102
3.6904459 -1.3211288 -0.22082102
3.7083058 -1.3374563 -0.22745204
3.7145646 -1.3501382 -0.22977364
3.7069588 -1.3583368 -0.22694528
3.6947331 -1.3649722 -0.22240102
3.6886547 -1.3735766 -0.22013998
3.6825962 -1.3821526 -0.21788657
3.6866469 -1.3941053 -0.21938801
3.6886799 -1.4053944 -0.22013998
3.6846416 -1.4146115 -0.21863687
3.6826298 -1.4245067 -0.21788657
3.6988611 -1.4407563 -0.22391236
3.7343764 -1.463884 -0.23710096
3.7518353 -1.4808111 -0.24358284
3.7669582 -1.4970032 -0.24919689
3.7652431 -1.5072126 -0.24855649
3.7284009 -1.5046495 -0.23486876
3.7253714 -1.5142568 -0.23374033
3.7207751 -1.5232686 -0.23203003
3.7152963 -1.5319253 -0.22999167
3.7111995 -1.5410688 -0.22846687
3.709451 -1.5510755 -0.22781432
3.68504 -1.5524472 -0.21874404
3.63885 -1.5453275 -0.20158446
3.5978365 -1.539942 -0.18634772
3.5717001 -1.5401109 -0.17663682
3.5555041 -1.5440267 -0.17061818
3.5784032 -1.56329 -0.17912042
3.4665763 -1.5689423 -0.13757002
3.3376126 -1.5449333 -0.089661241
3.3258171 -1.5495622 -0.085277438
3.3178461 -1.5557437 -0.082313895
3.1034293 -1.5005751 -0.0026646852
3.0885558 -1.502979 0.0028620958
3.0857255 -1.5106076 0.003915906
3.0730281 -1.513841 0.0086344481
3.0570526 -1.5155368 0.014570713
3.0410461 -1.5171269 0.020518422
3.0191848 -1.5159761 0.028640509
2.9930351 -1.512747 0.038355231
2.8465097 -1.4787557 0.092785954
2.841013 -1.4843549 0.094829917
2.8369062 -1.4905788 0.096357703
2.8321288 -1.4964603 0.098134518
2.8249893 -1.5011847 0.10078847
2.8185611 -1.5062103 0.10317826
2.8178923 -1.5139867 0.10342908
2.8290875 -1.5275358 0.099273562
2.878624 -1.5599287 0.080878139
2.8961227 -1.5768222 0.074381709
2.8976755 -1.5859147 0.07380724
2.8973253 -1.5940675 0.073939919
2.9019213 -1.6046975 0.072235465
2.9044368 -1.6143051 0.071303487
2.9056997 -1.623292 0.070836902
2.8969355 -1.6271732 0.074094415
2.8783243 -1.6259546 0.08100903
2.8646548 -1.6271771 0.0860883
2.8526709 -1.6291953 0.090541482
2.8406153 -1.6311071 0.095021129
2.8382215 -1.638015 0.095912576
2.8217087 -1.6374665 0.10204768
2.803715 -1.6360377 0.10873282
2.7866089 -1.6349789 0.11508811
2.7707446 -1.6344868 0.12098217
2.7628286 -1.6381849 0.12392449
2.7104127 -1.6411052 0.14340031
2.6870029 -1.6359478 0.15209651
2.6759803 -1.6375415 0.15619248
2.6537888 -1.6328311 0.16443622
2.6219347 -1.6225665 0.17626846
2.6133924 -1.6252785 0.179443
2.612818 -1.6324619 0.17965859
2.625808 -1.6473773 0.17483664
2.6312008 -1.658013 0.17283618
2.6021721 -1.6563302 0.18362105
2.5554881 -1.6366489 0.20096052
2.5333312 -1.6310384 0.2091912
2.514509 -1.6272596 0.2161833
2.5050051 -1.6288741 0.21971476
2.5012805 -1.6338621 0.22110021
2.4957111 -1.6377292 0.22317052
2.4888489 -1.6407899 0.22572112
2.488328 -1.6476275 0.22591668
2.4846528 -1.6525546 0.22728372
2.4846585 -1.6596972 0.22728372
2.4828277 -1.6657184 0.22796571
2.4773402 -1.6694866 0.23000562
2.469152 -1.6715586 0.23304856
2.4565184 -1.6708316 0.2377423
2.4463015 -1.6715351 0.24153841
2.4369273 -1.6727062 0.24502176
2.4272487 -1.6736325 0.24861813
2.422004 -1.6772993 0.25056779
2.4202647 -1.6831561 0.25121582
2.4202702 -1.6901134 0.25121582
2.4220207 -1.6981862 0.25056779
2.4182901 -1.7027496 0.25195527
2.4198885 -1.7107284 0.25136375
2.4607675 -1.7441635 0.23618531
2.4784586 -1.7627453 0.22961771
2.4993374 -1.783512 0.22186643
2.4875588 -1.7829607 0.22624254
2.4740427 -1.781196 0.23126388
2.4621329 -1.7804173 0.23568869
2.4503369 -1.7796459 0.24007118
2.4457555 -1.7836256 0.24177456
2.4442358 -1.7896327 0.24234104
2.4414499 -1.7947782 0.24337757
2.4432311 -1.8029974 0.24271822
2.4414611 -1.8088142 0.24337757
2.4459105 -1.8188641 0.24172735
2.4548523 -1.8320179 0.23840892
2.4700716 -1.8495418 0.23275959
2.4742355 -1.8595151 0.23121548
2.4686999 -1.8627826 0.23327315
2.4680145 -1.8693975 0.23352969
2.4711325 -1.8786688 0.23237407
2.4944668 -1.9021585 0.22371125
2.5103159 -1.9205029 0.21782798
2.5221677 -1.9361075 0.21342909
2.5278671 -1.9474056 0.21131492
2.5316825 -1.9573916 0.2099002
2.5297818 -1.9633023 0.21060812
2.5246277 -1.9668603 0.21252424
2.5146451 -1.9669001 0.21623319
2.5002141 -1.9636558 0.22159398
2.4859478 -1.9604486 0.22689354
2.4812326 -1.9641424 0.22864664
2.483072 -1.9726205 0.22796571
2.4904404 -1.9851834 0.22523165
2.5015726 -2.0005727 0.22110021
2.5071788 -2.0119221 0.21902061
2.509057 -2.0205245 0.21832526
2.5090628 -2.0277364 0.21832526
2.5096037 -2.0353506 0.21812654
2.5292225 -2.0573547 0.2108438
2.5459304 -2.0772679 0.20464194
2.555434 -2.0918026 0.20111519
2.5607266 -2.1031804 0.19915211
2.5678625 -2.1159995 0.19650471
2.5820587 -2.1342854 0.19123542
2.5902171 -2.1479955 0.18820834
2.5943661 -2.1586485 0.18666995
2.5878062 -2.1610026 0.18910795
2.5806727 -2.1628721 0.19175899
2.5631335 -2.1565542 0.19827378
2.5566213 -2.1587999 0.20069396
2.5464308 -2.1581078 0.20447993
2.5370965 -2.1580346 0.20794797
2.5301287 -2.1597869 0.21053737
2.5226171 -2.1610665 0.21332866
2.5166845 -2.1635656 0.21553373
2.5123885 -2.167345 0.2171309
2.4949811 -2.1605339 0.22359657
2.4686234 -2.1463852 0.23338532
2.4559972 -2.1432285 0.23807573
2.4434996 -2.1401043 0.24271822
2.433392 -2.1388619 0.24647319
2.4136689 -2.1296744 0.25379854
2.4040358 -2.1286786 0.25737739
2.4150681 -2.1446955 0.25328314
2.1304305 0.87801468 0.35171592
2.134825 0.87398791 0.35007101
2.1426866 0.87158847 0.34712708
2.1504745 0.86910915 0.34421074
2.1591797 0.86701679 0.34095085
2.1774702 0.86936188 0.33409911
2.1881614 0.86806583 0.33009517
2.2098002 0.87177026 0.32198894
2.2161174 0.86830962 0.31962383
2.2293057 0.86795044 0.31468403
2.2407978 0.86674559 0.31037986
2.2662475 0.87176752 0.3008458
2.2773147 0.8701998 0.29670101
2.2918775 0.87012422 0.29124641
2.2952428 0.86501288 0.28998739
2.305727 0.86301017 0.28606099
2.3151085 0.86046576 0.28254771
2.3257182 0.85839951 0.27857453
2.3405972 0.85811138 0.27300143
2.3515401 0.85605359 0.26890332
2.3570526 0.85162508 0.26683986
2.3696833 0.85016918 0.26210928
2.3754213 0.84575129 0.25996137
2.3839469 0.84246111 0.25676894
2.4066734 0.84499252 0.24825585
2.4136043 0.84090841 0.24566096
2.4223232 0.83751345 0.24239624
2.4205809 0.82983363 0.24305105
2.4240847 0.82427216 0.24174041
2.4267201 0.81834424 0.24075496
2.4350293 0.81464875 0.23764384
2.4568148 0.8162055 0.22948331
2.4836693 0.8196156 0.21942365
2.4920204 0.81570077 0.21629679
2.504962 0.8135035 0.2114501
2.5200202 0.81203973 0.20581031
2.5326173 0.80955696 0.2010926
2.5545237 0.81050205 0.19288695
2.5835686 0.81398439 0.18200684
2.6037686 0.81402481 0.17444074
2.620821 0.81279266 0.16805387
2.6508029 0.81617498 0.1568228
2.6657526 0.81394899 0.15122384
2.6808217 0.8116796 0.14558029
2.6974552 0.80988026 0.13935053
2.7214251 0.81057477 0.13037217
2.7478063 0.81197536 0.12049031
2.7714839 0.81228542 0.1116215
2.7836444 0.80849349 0.1070677
2.7935839 0.8038733 0.10334623
2.8056042 0.79990029 0.098845005
2.8184047 0.79612005 0.09405148
2.8258719 0.7904911 0.091256261
2.8380008 0.78635716 0.086714625
2.8557794 0.78400135 0.080056071
2.8692765 0.7801553 0.075001597
2.8689909 0.77180302 0.075111151
2.8659401 0.76257205 0.076256633
2.8673112 0.75475395 0.075745463
2.8800342 0.75047743 0.070981145
2.8938212 0.7464571 0.06581831
2.9024105 0.74076235 0.062602758
2.9108107 0.73496068 0.059458137
2.9347014 0.73377562 0.05050993
2.9578071 0.73221874 0.041855931
2.9681871 0.72677004 0.03796947
2.9861193 0.72347057 0.031253815
2.9986441 0.71850181 0.026564002
2.9993849 0.71008182 0.026288986
3.0009248 0.70188451 0.025714755
2.9944274 0.69141984 0.028151393
2.9897785 0.68150675 0.029895663
3.0040543 0.67682934 0.024549961
2.9992278 0.66686702 0.026360869
3.0137303 0.66214132 0.020930052
3.0254698 0.65659559 0.016534448
3.0860786 0.66387022 -0.0061691999
3.1224632 0.66447723 -0.019797802
3.1260722 0.65641975 -0.021147132
3.1350644 0.64971483 -0.024513245
3.1562204 0.64602602 -0.03243649
3.1523871 0.63598466 -0.030997634
3.1449368 0.62507427 -0.028203845
3.1403186 0.61489654 -0.026471019
3.1519854 0.60866499 -0.030839086
3.1518517 0.59956014 -0.030786157
3.1505907 0.59019113 -0.030310988
3.1446924 0.5797534 -0.028098702
3.1497602 0.57186282 -0.029994607
3.156116 0.56423461 -0.032372832
3.1688972 0.55800545 -0.037158489
3.1969404 0.55506873 -0.047661424
3.2435982 0.55602229 -0.065137863
3.2699471 0.5523454 -0.075006127
3.2809169 0.54525769 -0.079112887
3.2809241 0.53581536 -0.079112768
3.2982857 0.52995074 -0.085613966
3.3434272 0.52963316 -0.10252225
3.3376703 0.51885581 -0.10036266
3.3508513 0.51185238 -0.10529768
3.3454502 0.50115621 -0.10327137
3.3476033 0.49193981 -0.10407507
3.3722832 0.48696592 -0.11331785
3.3928306 0.48108152 -0.12101233
3.4048882 0.47352394 -0.12552631
3.4257531 0.46748456 -0.13333976
3.4352803 0.45931426 -0.13690591
3.4606788 0.45385846 -0.14641762
3.5134881 0.45296058 -0.16619766
3.5353537 0.44653752 -0.17438567
3.5634303 0.44101867 -0.1849004
3.550869 0.42871526 -0.18019176
3.5639875 0.4205955 -0.18510306
3.6498594 0.4238387 -0.21726847
3.6724763 0.41682461 -0.22573769
3.677084 0.40695271 -0.22746074
3.5792258 0.38182899 -0.19079924
3.5430977 0.3662633 -0.17726243
3.4934623 0.34897643 -0.15866554
3.4979491 0.3395499 -0.16034353
3.5928845 0.34249586 -0.19590366
3.6460414 0.3392888 -0.21581304
3.6870375 0.33417889 -0.23116708
3.6863847 0.32348368 -0.23091948
3.6702654 0.31085011 -0.22487795
3.661773 0.29924521 -0.22169352
3.6580884 0.2882652 -0.22031033
3.6666238 0.27873534 -0.22350442
3.6741261 0.26903856 -0.22631156
3.6664405 0.25761011 -0.22342932
3.6521502 0.24551076 -0.21807325
3.6402733 0.23374805 -0.21362102
3.6343675 0.22266611 -0.21140575
3.6412773 0.21289536 -0.21399093
3.6435919 0.20264021 -0.21485484
3.6239264 0.19030768 -0.20748508
3.5712273 0.17508143 -0.18774164
3.5525844 0.16316062 -0.18075514
3.5276246 0.15080845 -0.17140245
3.5305486 0.14089751 -0.17249477
3.5042231 0.1286439 -0.16263068
3.4770515 0.1164771 -0.15244949
3.4770083 0.10646766 -0.1524303
3.4806225 0.096717849 -0.15378118
3.510452 0.088730022 -0.16495168
3.5335181 0.080130085 -0.17358887
3.5377834 0.070227087 -0.17518365
3.5139771 0.058632895 -0.1662631
3.5198822 0.048854306 -0.16847205
3.5362103 0.039600626 -0.1745851
3.5540514 0.030329809 -0.181265
3.5524473 0.020025671 -0.18066108
3.5119162 0.007979691 -0.16547608
3.4670033 -0.0040174425 -0.14864981
3.4447265 -0.014868066 -0.14030254
3.4454923 -0.024752825 -0.1405865
3.4763477 -0.033634737 -0.15214109
3.5000086 -0.042914301 -0.16100085
3.5282276 -0.052203655 -0.1715678
3.5234289 -0.062475532 -0.16976726
3.5159223 -0.072779246 -0.16695249
3.5304613 -0.082618952 -0.17239535
3.5634942 -0.092242524 -0.18476546
3.6013792 -0.10199147 -0.19895267
3.6030447 -0.11233702 -0.1995734
3.5452597 -0.12314246 -0.17792618
3.5250027 -0.133439 -0.17033553
3.5266232 -0.1435791 -0.17093956
3.5273373 -0.1537275 -0.17120397
3.5276101 -0.16387823 -0.17130315
3.5172312 -0.17395794 -0.16741264
3.5123312 -0.18403095 -0.16557431
3.5123391 -0.19413739 -0.16557431
3.5123472 -0.20424384 -0.16557431
3.4958911 -0.21404862 -0.1594075
3.478816 -0.22374557 -0.15300882
3.465481 -0.23343424 -0.14801133
3.4769268 -0.24371406 -0.15229547
3.5210738 -0.25503516 -0.16882777
3.5594935 -0.26642299 -0.1832149
3.587404 -0.27765784 -0.19366574
3.5927155 -0.28818408 -0.19565213
3.5894299 -0.29838544 -0.19441843
3.5856032 -0.30854386 -0.19298208
3.5779667 -0.31850082 -0.19011867
3.5703621 -0.32841539 -0.1872673
3.5600903 -0.3381452 -0.18341696
3.5514874 -0.34790888 -0.18019176
3.5614173 -0.3587091 -0.18390799
3.5702398 -0.36949825 -0.18720925
3.5668921 -0.37955493 -0.18595243
3.5803139 -0.39071977 -0.19097626
3.6003308 -0.40242419 -0.19847047
3.5923564 -0.41220072 -0.1954807
3.5939214 -0.42265502 -0.19606376
3.5895369 -0.43264976 -0.19441843
3.5783372 -0.44206303 -0.19022059
3.5720887 -0.45183015 -0.1878773
3.5685701 -0.46179977 -0.18655646
3.5683074 -0.47204298 -0.18645489
3.5934212 -0.48464787 -0.19585788
3.6058388 -0.4961783 -0.2005055
3.6088936 -0.5068543 -0.20164645
3.593446 -0.51566511 -0.19585788
3.5604167 -0.5225473 -0.1834842
3.5390611 -0.53049445 -0.17548287
3.5289693 -0.53956205 -0.17170012
3.5356159 -0.55046749 -0.17418647
3.5586519 -0.56331468 -0.18281114
3.5911884 -0.57742512 -0.19499385
3.5993235 -0.58874816 -0.19803751
3.6422572 -0.60446 -0.21411419
3.6414187 -0.61483121 -0.21379709
3.6561608 -0.62723124 -0.21931517
3.6521909 -0.63721979 -0.21782506
3.6403155 -0.64610815 -0.2133745
3.624599 -0.65439355 -0.20748508
3.5902667 -0.65994442 -0.19462395
3.5605309 -0.66596377 -0.1834842
3.5530009 -0.67509365 -0.18066108
3.5649593 -0.6871165 -0.18513668
3.5649676 -0.69737327 -0.18513668
3.569715 -0.7083714 -0.1869117
3.5716226 -0.71894419 -0.18762314
3.5782945 -0.73030066 -0.19011867
3.5974791 -0.7437607 -0.19730043
3.612699 -0.75666547 -0.20299757
3.6227343 -0.76877201 -0.20675266
3.6305797 -0.78055596 -0.20968771
3.6266654 -0.79030859 -0.20821857
3.6160684 -0.79883969 -0.20424688
3.5869558 -0.80393434 -0.1933409
3.5805411 -0.81306458 -0.19093549
3.5838265 -0.82398224 -0.19216275
3.6261866 -0.84237957 -0.20802379
3.6326027 -0.85405397 -0.21042335
3.6620524 -0.87029576 -0.22144926
3.6717896 -0.88277316 -0.22509277
3.6723719 -0.893453 -0.2253077
3.6643617 -0.90237188 -0.22230494
3.6524084 -0.91042376 -0.21782506
3.6444852 -0.9192574 -0.21485484
3.6484551 -0.93059003 -0.21633828
3.6484635 -0.94108641 -0.21633828
3.6484718 -0.95158279 -0.21633828
3.6272643 -0.95735705 -0.20839322
3.6053805 -0.96285677 -0.20019472
3.6150038 -0.97542465 -0.20379531
3.6224432 -0.98754275 -0.20657837
3.6424804 -1.0026528 -0.2140789
3.6673954 -1.0190339 -0.22340643
3.6719887 -1.0306842 -0.22512341
3.6618059 -1.0387745 -0.2213068
3.6559269 -1.0478631 -0.21910203
3.6525254 -1.0575335 -0.21782506
3.6406491 -1.0650543 -0.2133745
3.6145222 -1.0688838 -0.20358717
3.6123075 -1.0787108 -0.20275474
3.6329811 -1.0944753 -0.21049356
3.6514323 -1.1097744 -0.21740007
3.659972 -1.122546 -0.22059488
3.6597519 -1.1330138 -0.22050941
3.6679873 -1.1457757 -0.22359025
3.6486306 -1.1510148 -0.21633828
3.6492052 -1.1616682 -0.21655047
3.6526177 -1.1731198 -0.21782506
3.6692755 -1.1883392 -0.22406006
3.6447024 -1.1918681 -0.21485484
3.6826558 -1.2133093 -0.22906435
3.657768 -1.2166433 -0.21974146
3.6806951 -1.2339151 -0.22832382
3.6686356 -1.2409152 -0.22380459
3.672658 -1.252674 -0.2253077
3.6749637 -1.2639357 -0.22616804
3.6784239 -1.275564 -0.22746074
3.679008 -1.2863235 -0.22767627
3.6641011 -1.2922574 -0.22209084
3.6457286 -1.2970148 -0.2152077
3.6493604 -1.3086531 -0.21656466
3.6631742 -1.3235741 -0.2217344
3.6761727 -1.338311 -0.22659862
3.6727335 -1.3477619 -0.2253077
3.6727421 -1.3583273 -0.2253077
3.6687365 -1.3675606 -0.22380459
3.6647394 -1.3767735 -0.22230494
3.664748 -1.3873158 -0.22230494
3.6587651 -1.395818 -0.2200613
3.6528018 -1.4042923 -0.21782506
3.6528101 -1.4148003 -0.21782506
3.6687868 -1.4308833 -0.22380459
3.7037411 -1.453738 -0.23689044
3.6762655 -1.4546387 -0.22659862
3.682034 -1.4672748 -0.22875571
3.6728346 -1.4745458 -0.2253077
3.6838653 -1.489118 -0.22943509
3.7016695 -1.5062351 -0.23609877
3.6979055 -1.5154903 -0.23468614
3.6855412 -1.5215231 -0.23005307
3.6740248 -1.5278033 -0.22573769
3.673172 -1.5380464 -0.22541511
3.6571741 -1.5425178 -0.21942151
3.6272635 -1.5415598 -0.20821857
3.5963697 -1.5400498 -0.19664741
3.565367 -1.5383195 -0.18503547
3.5220904 -1.5315964 -0.16882777
3.5204704 -1.5410844 -0.16821802
3.3158607 -1.5365148 -0.09158051
3.3036444 -1.5409064 -0.087003589
3.2999411 -1.5488359 -0.085613966
3.0937593 -1.4970202 -0.0084016323
3.0856419 -1.5023586 -0.0053595304
3.0771644 -1.5074911 -0.0021826029
3.0617363 -1.5094887 0.0035966635
3.0431087 -1.5099679 0.010573864
3.0254862 -1.5107919 0.01717484
3.0038369 -1.5096916 0.025283575
2.8451316 -1.4787568 0.0847193
2.8396375 -1.4843559 0.08677876
2.8355327 -1.4905798 0.088318229
2.8331463 -1.4975977 0.089214206
2.8283792 -1.5034626 0.091001511
2.8188865 -1.5070249 0.09455812
2.8118103 -1.511703 0.09720993
2.8263576 -1.5268743 0.091765642
2.8847644 -1.5636219 0.069899559
2.8993871 -1.5791236 0.064427257
2.8978999 -1.5867225 0.064986467
2.8964777 -1.5943453 0.065521359
2.8942649 -1.6015635 0.066352367
2.9042864 -1.6149397 0.062602758
2.8938627 -1.6180019 0.066507936
2.8835132 -1.6210424 0.070385456
2.8671036 -1.620914 0.076531768
2.8535335 -1.6221564 0.08161509
2.8428395 -1.6248127 0.085621238
2.8296683 -1.6261151 0.090555191
2.8272917 -1.633004 0.091447353
2.8156123 -1.6349728 0.095822692
2.8046985 -1.6372802 0.099911213
2.7961955 -1.6408103 0.10309708
2.7775857 -1.6388739 0.11006701
2.7805128 -1.6484368 0.10897362
2.7460101 -1.6377376 0.12189376
2.7271109 -1.6353388 0.12897205
2.7076375 -1.6325167 0.13626516
2.696048 -1.6339221 0.14060652
2.6735833 -1.6292436 0.1490196
2.6598523 -1.6292934 0.1541627
2.6417704 -1.6268318 0.16093481
2.6288731 -1.6271795 0.16576564
2.6223283 -1.6310407 0.16821826
2.6227734 -1.6388321 0.16805387
2.6268833 -1.648717 0.16651738
2.6222975 -1.6536393 0.16823649
2.5873122 -1.6484547 0.18133903
2.5513394 -1.6349554 0.19480908
2.5297878 -1.6296842 0.20288002
2.5123515 -1.6267079 0.20941007
2.5019269 -1.627773 0.21331501
2.4944973 -1.6305557 0.21609867
2.485271 -1.6322242 0.21955502
2.4737673 -1.6324745 0.22386396
2.4706523 -1.6377103 0.22503215
2.4688413 -1.6437168 0.2257123
2.4724829 -1.6530277 0.22435105
2.4743106 -1.6612517 0.22366893
2.470675 -1.6661333 0.22503215
2.464334 -1.6693261 0.22740829
2.4535348 -1.6697212 0.2314533
2.4433382 -1.670429 0.23527277
2.4357476 -1.6727072 0.23811656
2.4260738 -1.6736335 0.24174041
2.4208317 -1.6773002 0.24370492
2.4208372 -1.6842625 0.24370492
2.4225895 -1.6923368 0.24305105
2.4243443 -1.7004228 0.24239624
2.4223509 -1.7061111 0.24314445
2.4265828 -1.7158049 0.24156225
2.463449 -1.7466747 0.22776282
2.4813125 -1.7653853 0.22107738
2.4928975 -1.7800932 0.21674246
2.4816294 -1.7798582 0.220963
2.4637728 -1.7752124 0.22765005
2.4519556 -1.7744653 0.23207605
2.4420261 -1.774906 0.23579544
2.439244 -1.7800664 0.23683906
2.4395027 -1.7872512 0.23674428
2.4384959 -1.7935847 0.23712325
2.4420485 -1.8029983 0.23579544
2.4385071 -1.8076104 0.23712325
2.4447267 -1.8188651 0.234797
2.46206 -1.8377743 0.22831023
2.4775939 -1.8555442 0.22249717
2.4830959 -1.866469 0.22043955
2.4766042 -1.8690999 0.2228719
2.4759142 -1.8757373 0.22313231
2.4799693 -1.8856916 0.22161651
2.5034831 -1.9093443 0.21281612
2.5166225 -1.9258115 0.20789945
2.5247376 -1.9387945 0.20486379
2.5266435 -1.9474065 0.20415258
2.5285516 -1.9560316 0.20344031
2.5285573 -1.9633032 0.20344031
2.5247607 -1.9678371 0.20486379
2.5153108 -1.9682622 0.20840353
2.500865 -1.9650075 0.21381336
2.4847445 -1.9604496 0.21985006
2.4782014 -1.9628046 0.22230166
2.4800375 -1.9712753 0.22161651
2.4873912 -1.9838248 0.21886575
2.4966438 -1.9978217 0.21540427
2.5022306 -2.0091484 0.21331501
2.5041022 -2.0177357 0.21261656
2.504108 -2.0249369 0.21261656
2.5083892 -2.0353515 0.21101606
2.5362718 -2.0635982 0.2005806
2.5518806 -2.0827086 0.19473994
2.5600388 -2.0962448 0.1916883
2.5614395 -2.1046712 0.1911661
2.5676007 -2.1167521 0.18886197
2.5818012 -2.1350493 0.18354845
2.5919607 -2.15031 0.17974758
2.5961175 -2.1609786 0.17819393
2.5911155 -2.1645503 0.18006843
2.5814466 -2.1644518 0.18369007
2.5633428 -2.157691 0.19046903
2.5519853 -2.1561296 0.19472271
2.5456805 -2.1584892 0.19708478
2.5421078 -2.162976 0.19842446
2.539422 -2.1681471 0.1994319
2.5358121 -2.1725655 0.2007854
2.5330851 -2.1776702 0.20180821
2.5287311 -2.1814516 0.20344031
2.5106416 -2.1741345 0.21021372
2.4759178 -2.1532545 0.22321367
2.4607186 -2.1480284 0.2289052
2.4414113 -2.1393673 0.23613453
2.4275265 -2.1350293 0.2413339
2.4065733 -2.1248114 0.24917907
2.3960147 -2.1230326 0.25313342
2.4069788 -2.1389775 0.24903142
2.1190803 0.87303293 0.34956813
2.1195319 0.86714435 0.34939945
2.128056 0.8651042 0.34618145
2.1453068 0.86715221 0.33966732
2.1609147 0.86832678 0.33377373
2.1887269 0.87512767 0.3232702
2.2002215 0.87417245 0.31893039
2.2170048 0.87559772 0.31259298
2.2179732 0.86965585 0.31222904
2.2286479 0.86814284 0.30819881
2.2417083 0.86765099 0.30326772
2.2613666 0.87006032 0.29584444
2.2715847 0.86812556 0.29198682
2.2860816 0.86803699 0.28651315
2.2921143 0.86412013 0.28423649
2.3006563 0.86127174 0.28101194
2.3129034 0.85999191 0.27638817
2.3296511 0.86059391 0.27006435
2.3406601 0.8586266 0.26590812
2.3600101 0.86016607 0.25860143
2.3641756 0.85513818 0.25703025
2.3685348 0.85016835 0.25538576
2.3731496 0.84528077 0.2536447
2.3827913 0.84246016 0.25000501
2.4084682 0.84621668 0.24030876
2.4176521 0.84305084 0.23684204
2.4281619 0.84037268 0.23287463
2.4264104 0.83266854 0.23353827
2.4299324 0.82709515 0.2322101
2.4317 0.82080102 0.23154455
2.4382732 0.81640136 0.22906399
2.4615467 0.81853485 0.22027576
2.4787951 0.81818104 0.21376312
2.4865909 0.81406307 0.21082091
2.4955184 0.81033564 0.20745105
2.5179579 0.81171775 0.19897795
2.5296621 0.80890119 0.19455957
2.5511122 0.80968332 0.18646026
2.5843854 0.8147558 0.17389536
2.5998158 0.81302726 0.16806948
2.617506 0.81204021 0.16139042
2.64236 0.8135637 0.15200543
2.6566205 0.81111157 0.14662182
2.6699221 0.80823302 0.14160025
2.6842778 0.80565333 0.13618052
2.7102134 0.80708027 0.12638736
2.7376657 0.80888903 0.11602128
2.7724307 0.81307995 0.10289347
2.7809763 0.80803823 0.099668264
2.7922299 0.80387211 0.09542048
2.7992284 0.79820013 0.092779636
2.807605 0.79295051 0.089618444
2.8300643 0.79234195 0.081138492
2.8493071 0.79054236 0.073873162
2.8593402 0.78561842 0.07008636
2.8636875 0.7787925 0.068446994
2.8622973 0.77009726 0.068974495
2.8604786 0.76127362 0.069663882
2.8631253 0.75387013 0.068666816
2.8740568 0.74904299 0.064540744
2.894737 0.7471745 0.056732774
2.894259 0.73869026 0.056915879
2.9067581 0.73415589 0.052197814
2.9189501 0.72945726 0.04759562
2.9498725 0.73027754 0.035919785
2.9615085 0.72522032 0.031527638
2.9813554 0.72249877 0.024034739
2.984828 0.71491826 0.022725701
2.9958906 0.70949519 0.018550515
3.0000451 0.70204651 0.016983986
2.9935489 0.6915797 0.019440055
2.9838908 0.68027055 0.023090243
3.0040581 0.67723024 0.015476108
2.992806 0.66551208 0.019728303
3.0068681 0.66068387 0.014420152
3.0094078 0.65270138 0.013463616
3.0446537 0.65333366 0.0001553297
3.0935709 0.65733099 -0.01831615
3.097621 0.64946663 -0.019842982
3.0967565 0.64032483 -0.019513845
3.1350305 0.64106393 -0.033965588
3.1290212 0.63053596 -0.031693339
3.1258337 0.62073863 -0.030486941
3.12293 0.61102879 -0.029387593
3.1357293 0.60511708 -0.034218669
3.1414714 0.59745252 -0.036384344
3.1372805 0.58742023 -0.03479898
3.1343555 0.57770622 -0.033691525
3.1423342 0.57050896 -0.036702037
3.1516218 0.56356227 -0.04020679
3.1703558 0.55867362 -0.047278881
3.1966965 0.55535555 -0.057223678
3.2326515 0.55397964 -0.070799232
3.2665434 0.5519532 -0.083595514
3.2779531 0.54496515 -0.087901473
3.2793341 0.53581405 -0.088420153
3.2912951 0.52883732 -0.092934251
3.324142 0.52603936 -0.10533583
3.3283279 0.51730585 -0.10691369
3.3392236 0.50987422 -0.11102545
3.3404984 0.5005064 -0.11150396
3.3459809 0.49193856 -0.11357152
3.3740399 0.48760548 -0.1241647
3.4015045 0.48300025 -0.13453352
3.4136298 0.47542658 -0.13910949
3.4293442 0.46843031 -0.14504087
3.436547 0.45983317 -0.14775801
3.4404161 0.45061246 -0.14921606
3.4876139 0.44880912 -0.16703653
3.4812436 0.43769071 -0.16462791
3.5066559 0.43188295 -0.1742214
3.4978571 0.42035046 -0.17089558
3.51402 0.4128671 -0.17699611
3.5256536 0.40457818 -0.18138635
3.5354548 0.39593932 -0.18508434
3.5305007 0.38500819 -0.18321061
3.5188675 0.37311259 -0.17881453
3.5041697 0.36083731 -0.17326128
3.4766018 0.34680772 -0.16284788
3.4792011 0.33716077 -0.16382635
3.510015 0.33136842 -0.1754595
3.5280735 0.323686 -0.18227565
3.5429888 0.31548676 -0.18790495
3.5380142 0.30464566 -0.18602335
3.5175266 0.29188457 -0.17828369
3.5033047 0.28001052 -0.17291033
3.6113245 0.28287092 -0.21369731
3.6357899 0.27533466 -0.22293282
3.6666667 0.25783148 -0.23458612
3.6490567 0.24536595 -0.22793305
3.6411424 0.23402441 -0.22494137
3.6312382 0.21206889 -0.2211951
3.6232798 0.20084295 -0.21818674
3.6029541 0.18850091 -0.21050847
3.5416775 0.17254648 -0.18736684
3.5270724 0.16106108 -0.18184876
3.4892359 0.14767787 -0.16755831
3.4993849 0.13846821 -0.17138755
3.4830406 0.12709251 -0.16521299
3.4635241 0.11556771 -0.15784037
3.4525819 0.10478812 -0.15370572
3.4414566 0.094058588 -0.14950168
3.4480228 0.084596828 -0.15197814
3.4390361 0.074083954 -0.14858174
3.4461105 0.064623132 -0.15125
3.471766 0.05622533 -0.16093457
3.4744453 0.046381205 -0.16194332
3.5012915 0.037818059 -0.1720773
3.5251298 0.028947696 -0.18107545
3.5320315 0.019129127 -0.18367851
3.4955816 0.007319808 -0.16991222
3.4528384 -0.004544735 -0.15376961
3.4332404 -0.015254691 -0.14636648
3.4314919 -0.025202602 -0.14570332
3.4585414 -0.034175985 -0.15591395
3.4741571 -0.043655053 -0.16180742
3.4922504 -0.053155303 -0.1686362
3.4968092 -0.063096032 -0.17035449
3.5050385 -0.072982319 -0.17345881
3.5034776 -0.083102889 -0.17286634
3.5136213 -0.093024611 -0.17669356
3.5426092 -0.10275339 -0.18763578
3.5504742 -0.11286992 -0.19060242
3.5108438 -0.12339164 -0.1756357
3.4976029 -0.13356112 -0.1706332
3.4967432 -0.14363176 -0.17030537
3.5024886 -0.15370439 -0.17247164
3.5019739 -0.16378541 -0.17227447
3.4917405 -0.17379719 -0.16840732
3.483288 -0.18376726 -0.16521299
3.4735055 -0.1936719 -0.16151631
3.4773719 -0.20373106 -0.16297305
3.460315 -0.21342891 -0.15652978
3.4597111 -0.22337747 -0.15629888
3.4576814 -0.23328815 -0.15552938
3.4824579 -0.24390998 -0.16488135
3.5193677 -0.25503653 -0.17881453
3.5228961 -0.26528317 -0.18014371
3.5649788 -0.2769227 -0.1960299
3.5730467 -0.28749555 -0.19907296
3.5769949 -0.29794443 -0.20056045
3.5794954 -0.3083519 -0.20150149
3.5591578 -0.3176977 -0.19381964
3.5497503 -0.32747278 -0.19026458
3.5358608 -0.33695668 -0.18501735
3.5273707 -0.34666163 -0.18180871
3.4943094 -0.354877 -0.16932297
3.4828291 -0.36422938 -0.1649853
3.4796543 -0.37405047 -0.16378367
3.5541744 -0.38907951 -0.19191647
3.5686893 -0.40032843 -0.19739377
3.5644541 -0.41029164 -0.1957916
3.55897 -0.42013565 -0.19371784
3.5385981 -0.42877516 -0.18602335
3.5407403 -0.43913585 -0.18682897
3.5420837 -0.44944128 -0.18733323
3.5525415 -0.46055108 -0.19127846
3.5608997 -0.47153157 -0.19443107
3.5916803 -0.48464924 -0.20604932
3.6118529 -0.49692515 -0.21366227
3.6188183 -0.50801057 -0.21628916
3.6071532 -0.51723921 -0.21188188
3.5738566 -0.52413625 -0.19930756
3.5429502 -0.5310986 -0.18763578
3.5272593 -0.53956342 -0.18170869
