# .PCD v0.7 - Point Cloud Data file format
VERSION 0.7
FIELDS x y z
SIZE 4 4 4
TYPE F F F
COUNT 1 1 1
WIDTH 1549
HEIGHT 1
VIEWPOINT 0 0 0 1 0 0 0
POINTS 1549
DATA ascii
3.8136423 0.50852752 1.4305389
3.8470783 0.50402498 1.4329979
3.8691401 0.49744073 1.4346201
3.8860791 0.48989502 1.4358656
3.9236391 0.48559937 1.438628
3.9443557 0.47841957 1.4401513
3.9083068 0.46223679 1.4374988
3.8957224 0.44985977 1.4365726
3.9717565 0.45095864 1.4421651
4.0068316 0.44556335 1.4447446
4.0457816 0.4405463 1.4476092
4.0182781 0.4257988 1.4455854
4.0070477 0.41348669 1.4447587
3.989372 0.40034541 1.4434578
4.005733 0.39190325 1.4446607
4.0342174 0.38498136 1.4467554
4.0372286 0.37459734 1.4469762
4.055696 0.36616442 1.448334
4.0956054 0.3603045 1.4512691
4.1069117 0.35074398 1.4521
4.135551 0.34319016 1.4542062
4.1716857 0.33635724 1.4568634
4.2321458 0.33210248 1.4613103
4.2563529 0.32349169 1.4630902
4.2597041 0.31248745 1.4633362
4.2726564 0.30248201 1.4642882
4.2726655 0.29107133 1.4642882
4.2995291 0.28236106 1.4662633
4.325253 0.27339587 1.4681549
4.3356347 0.2628324 1.4689178
4.3607917 0.25358099 1.4707677
4.4194288 0.24720433 1.4750803
4.4480443 0.23789641 1.4771843
4.4476628 0.22598445 1.4771558
4.415782 0.21149594 1.4748099
4.4239717 0.20035112 1.4754117
4.4270768 0.18877342 1.4756392
4.4340658 0.17746606 1.4761529
4.442246 0.16620618 1.4767537
4.4404368 0.15421835 1.47662
4.5135851 0.11101252 1.4819977
4.7067437 0.10961246 1.4962047
4.7287951 0.098199874 1.497826
5.1003523 -0.072988734 1.5251446
5.0809112 -0.086850666 1.5237139
5.0636439 -0.10058751 1.5224432
5.065073 -0.11409955 1.5225475
5.0449948 -0.12771417 1.5210699
5.0120416 -0.14124399 1.5186453
5.0122185 -0.15462837 1.5186574
5.0552707 -0.1681677 1.5218233
5.1090174 -0.18200392 1.5257757
5.1633925 -0.19613272 1.5297742
5.217145 -0.21054465 1.5337269
5.2322536 -0.22469193 1.5348375
5.2409301 -0.23881087 1.5354748
5.2398567 -0.25278482 1.535395
5.2301245 -0.26656002 1.5346783
5.2233005 -0.28035575 1.5341756
5.2637053 -0.29541975 1.5371466
5.3729935 -0.31278646 1.5451839
5.4089785 -0.32832015 1.5478299
5.4503326 -0.34423733 1.5508705
5.4339647 -0.35816404 1.5496659
5.4674249 -0.37404513 1.5521259
5.5422511 -0.39191046 1.5576284
5.548337 -0.40699133 1.5580752
5.5473757 -0.42175943 1.5580037
5.564826 -0.43747348 1.5592864
5.6021943 -0.45436278 1.5620338
5.6997528 -0.47488236 1.5692081
5.7182193 -0.49120349 1.5705653
5.7350726 -0.50752258 1.571804
5.755949 -0.52419317 1.5733385
5.7815957 -0.54129803 1.575224
5.8188186 -0.55935425 1.5779607
5.8578787 -0.57774329 1.5808325
5.914 -0.59763217 1.5849593
5.9285555 -0.61456358 1.5860288
5.9578691 -0.63276851 1.5881839
5.9627938 -0.6490885 1.5885451
5.9628067 -0.66501057 1.5885451
6.0016947 -0.68439412 1.5914043
6.1034803 -0.70975351 1.5988892
6.2022872 -0.7353754 1.6061552
6.2355537 -0.75516403 1.6086009
6.3062959 -0.77886724 1.6138027
6.3380966 -0.79896116 1.6161406
6.311511 -0.81309056 1.6141843
6.3407698 -0.833094 1.616335
6.3447561 -0.85046363 1.6166275
6.3559208 -0.86866605 1.6174474
6.3392229 -0.88370323 1.6162183
6.3479795 -0.90166521 1.6168615
6.4182692 -0.9271245 1.6220299
6.4597716 -0.94939637 1.6250812
6.6761341 -0.99399567 1.6409925
6.6688204 -1.0108759 1.6404533
6.6832123 -1.0305769 1.6415107
6.6603694 -1.0453492 1.6398299
6.6621366 -1.0633736 1.6399587
6.7080469 -1.0875772 1.6433342
6.7708549 -1.1144327 1.6479522
6.8109441 -1.1383266 1.6508994
6.8887978 -1.1680154 1.656624
6.9284034 -1.1923656 1.6595356
6.9239969 -1.2101882 1.6592104
6.9684815 -1.2356037 1.662481
6.9528666 -1.2517333 1.6613314
7.0901613 -1.2924174 1.6714272
7.1705027 -1.3245059 1.6773347
7.2278385 -1.3531935 1.6815503
7.4242706 -1.4057134 1.6959951
7.8487153 -1.4984561 1.7272083
8.1352415 -1.5694013 1.7482787
8.2951918 -1.6194539 1.7600402
8.1375999 -1.6132619 1.7484496
8.2324104 -1.8061281 1.7554119
8.1642904 -1.8142192 1.7504008
8.1171904 -1.8262875 1.7469358
8.0552244 -1.8349943 1.7423778
8.0552416 -1.8565015 1.7423778
8.0732393 -1.8818659 1.7436999
8.0732565 -1.903421 1.7436999
8.0732737 -1.9249762 1.7436999
8.0732908 -1.9465313 1.7436999
8.073308 -1.9680864 1.7436999
6.4896183 -1.6980615 1.6272327
6.474143 -1.711652 1.6260935
6.4172707 -1.7150636 1.6219102
6.2715688 -1.6962706 1.6111946
6.2039638 -1.6961631 1.6062224
6.1687069 -1.7038426 1.6036286
6.1393027 -1.7128237 1.6014653
5.9229279 -1.6735532 1.5855527
5.810348 -1.6601043 1.5772734
5.7625327 -1.6630589 1.5737561
5.748045 -1.674598 1.5726898
5.6644673 -1.6675502 1.5665431
5.5688572 -1.6568 1.5595114
5.4254694 -1.6324849 1.5489664
5.2983222 -1.6118851 1.5396156
5.2225595 -1.6049211 1.5340436
5.1745396 -1.6053555 1.5305116
5.1524372 -1.612892 1.5288854
5.1378102 -1.6224531 1.527809
5.1378212 -1.63617 1.527809
5.1451406 -1.6520205 1.5283465
5.1451516 -1.6657568 1.5283465
5.1451626 -1.6794933 1.5283465
5.1451735 -1.6932297 1.5283465
5.1305885 -1.7025493 1.5272732
5.100626 -1.7070967 1.5250691
5.0283785 -1.6984625 1.5197556
4.943306 -1.685459 1.5134993
4.8785491 -1.6783657 1.5087365
4.8163829 -1.6717453 1.5041645
4.7388692 -1.659903 1.4984639
4.6784611 -1.6531428 1.4940212
4.6432943 -1.6542373 1.4914347
4.6195836 -1.6588857 1.4896904
4.6048908 -1.6663772 1.4886093
4.5687556 -1.666672 1.4859514
4.4809051 -1.6494678 1.4794908
4.3673511 -1.6231252 1.4711403
4.2676907 -1.6008997 1.4638114
4.2161784 -1.5946399 1.460023
4.191411 -1.59734 1.4582012
4.1681905 -1.6004463 1.4564929
4.1439452 -1.6030692 1.4547095
3.7758183 -1.5142952 1.4276384
3.7497323 -1.5148772 1.4257196
3.7302217 -1.517731 1.4242845
3.6948488 -1.514622 1.421683
3.6538029 -1.5092137 1.4186642
3.6063676 -1.5011926 1.4151757
3.5420535 -1.4865493 1.4104462
3.5051241 -1.4819688 1.4077301
3.4882312 -1.4848586 1.4064876
3.4748352 -1.4890059 1.405502
3.4615417 -1.4931215 1.404524
3.4483492 -1.4972055 1.4035535
3.4352577 -1.5012586 1.4025903
3.4255056 -1.5065645 1.4018728
3.4352722 -1.5195999 1.4025903
3.4407251 -1.5309563 1.4029908
3.3786242 -1.5420974 1.3984224
3.4534633 -1.5821495 1.4039247
3.6455882 -1.6715523 1.4180505
3.7223377 -1.7135187 1.4236931
3.7681363 -1.7428116 1.4270599
4.4394612 -2.2042863 1.4764099
4.4767241 -2.233475 1.4791491
4.659111 -2.3307908 1.4925584
4.6908054 -2.3581431 1.4948879
6.5401855 -3.4730361 1.6308479
6.5751324 -3.5083363 1.6334162
6.5955744 -3.536376 1.6349181
6.611948 -3.5624249 1.6361209
6.5895953 -3.5684712 1.6344764
6.5830431 -3.5826368 1.6339937
6.6770759 -3.6494849 1.6409061
6.7674971 -3.7149315 1.6475528
6.8258839 -3.7639008 1.6518445
6.8909068 -3.8167126 1.656624
6.9084668 -3.8444889 1.6579138
6.9505124 -3.8855188 1.6610039
6.997581 -3.929486 1.6644635
7.0384378 -3.9703326 1.6674662
7.0797744 -4.0116587 1.6705042
7.0738559 -4.0273042 1.6700679
7.0131435 -4.0127382 1.6656032
6.9325247 -3.9868309 1.6596751
6.8910389 -3.9822562 1.656624
6.8519001 -3.9787712 1.6537455
6.8519144 -3.9970605 1.6537455
6.8649311 -4.0226841 1.6547014
6.8817348 -4.0505242 1.6559356
6.8817492 -4.068893 1.6559356
6.8668356 -4.0787206 1.6548381
6.8649893 -4.0959797 1.6547014
6.8520017 -4.1067958 1.6537455
6.8650184 -4.1326275 1.6547014
6.8911853 -4.1661935 1.656624
6.9441075 -4.2155628 1.6605135
6.9708815 -4.249836 1.662481
6.9574909 -4.2605224 1.6614953
6.9308486 -4.2632728 1.6595356
6.8912587 -4.258162 1.656624
6.8781714 -4.2687106 1.6556607
6.8595562 -4.2758636 1.6542912
6.749876 -4.2279015 1.6462269
6.6687236 -4.1966643 1.6402597
6.6189203 -4.1841011 1.6365973
6.6202321 -4.2025623 1.6366928
6.5793991 -4.1951189 1.6336899
6.5104899 -4.1701212 1.6286228
6.4028101 -4.1207123 1.6207057
6.2540469 -4.0451407 1.6097685
6.1787863 -4.0147505 1.6042347
6.0266566 -3.935673 1.5930499
5.9844222 -3.925108 1.5899441
5.9637661 -3.9279873 1.5884244
5.7187285 -3.8337817 1.570407
5.6971288 -3.8350656 1.5688183
5.618113 -3.798943 1.5630085
5.6065164 -3.8063676 1.5621552
5.193449 -3.5923965 1.531786
5.1547027 -3.5804646 1.5289369
5.1284456 -3.5766706 1.5270057
5.1010838 -3.5719962 1.5249937
5.0579691 -3.5565653 1.5218233
5.0366888 -3.5556684 1.5202581
5.0033669 -3.546484 1.5178077
4.9396243 -3.5163891 1.5131211
4.8735733 -3.4843757 1.5082649
4.8380523 -3.4729786 1.5056529
4.7904782 -3.4530811 1.5021549
4.7162995 -3.4145145 1.4967012
4.6455183 -3.377913 1.4914973
4.569262 -3.3371153 1.4858909
4.5066681 -3.3054764 1.4812888
4.4851303 -3.3023596 1.4797049
4.4798508 -3.3105984 1.479316
4.5077658 -3.3423176 1.4813675
4.5228019 -3.3650298 1.4824719
4.4981785 -3.3595247 1.4806613
4.4089241 -3.3076 1.4740994
4.3774376 -3.2967257 1.4717841
4.3449678 -3.2849751 1.4693967
4.322669 -3.280416 1.4677567
4.190105 -3.2067673 1.4580107
4.1217446 -3.1678908 1.452985
4.1090484 -3.1695552 1.4520512
4.1048837 -3.1774435 1.4517443
4.083231 -3.1723654 1.4501519
4.0858746 -3.18522 1.4503458
4.0740538 -3.187305 1.4494762
4.0845737 -3.206043 1.4502487
4.0855713 -3.2176862 1.4503214
4.0854697 -3.2285068 1.4503134
1.7352477 0.92445517 1.2731791
1.7346959 0.91947436 1.2731396
1.7344221 0.91466737 1.2731199
1.7344258 0.91003132 1.2731199
1.7455629 0.91217017 1.2739103
1.7932953 0.93641961 1.2772982
1.8083103 0.94068027 1.2783638
1.8203845 0.94309485 1.2792207
1.8288931 0.94331324 1.2798244
1.8277732 0.93775606 1.2797446
1.8277771 0.93287063 1.2797446
1.8276269 0.92789435 1.2797337
1.8324422 0.92583418 1.2800752
1.8367492 0.9234513 1.2803806
1.8431785 0.92227983 1.2808368
1.8502395 0.92143989 1.2813377
1.8533168 0.91826606 1.2815559
1.8568586 0.91534221 1.2818069
1.8575445 0.91076851 1.2818553
1.8605547 0.90751243 1.2820688
1.8710661 0.90848374 1.2828146
1.8856952 0.91171706 1.2838528
1.8914579 0.90990388 1.2842616
1.8969949 0.90793431 1.2846544
1.9017779 0.90551627 1.2849935
1.9054354 0.90245128 1.2852528
1.9121383 0.90104067 1.2857285
1.9151833 0.89759314 1.2859442
1.9197667 0.89496696 1.2862692
1.9248848 0.89260578 1.2866323
1.9287056 0.88951802 1.2869031
1.9320984 0.88618052 1.2871437
1.9331362 0.88156819 1.2872171
1.9891547 0.89018619 1.2911922
1.98375 0.88205564 1.2908082
1.9823291 0.87601602 1.2907071
1.9794114 0.86921322 1.2904997
1.9875042 0.86806607 1.2910738
2.0177407 0.87815928 1.2932197
2.0250256 0.8764571 1.2937365
2.0485837 0.88292074 1.2954084
2.048588 0.87744558 1.2954084
2.0498102 0.87257791 1.2954948
2.0572057 0.870767 1.2960194
2.059947 0.86661935 1.2962136
2.0686564 0.86538661 1.2968315
2.089741 0.87014854 1.2983278
2.1010292 0.87004173 1.2991288
2.1105013 0.86899745 1.2998006
2.1152122 0.86561668 1.3001348
2.1312585 0.86762309 1.3012733
2.3281827 0.8433845 1.3152441
2.3406546 0.84244859 1.316129
2.3480186 0.83929372 1.3166512
2.348983 0.83342028 1.3167193
3.3711972 0.60356617 1.3892339
3.3948505 0.59978044 1.3909119
3.4616275 0.60527718 1.3956501
3.5161641 0.60777926 1.3995197
3.5575418 0.60718918 1.4024556
3.5802059 0.60244489 1.4040632
3.5852873 0.5939312 1.4044234
3.5924232 0.58581102 1.4049292
3.6031759 0.57838404 1.4056917
3.6067793 0.56947351 1.4059469
3.6217616 0.56278324 1.4070095
3.6463044 0.55786872 1.4087505
3.6775858 0.55411351 1.4109699
3.7159469 0.55152762 1.4136915
3.7445562 0.54692173 1.4157211
3.7622728 0.54016483 1.4169776
3.7529042 0.52841711 1.4163123
3.7372041 0.51559174 1.4151977
3.7484717 0.50758123 1.4159967
3.8171039 0.50942039 1.4208663
3.8453481 0.50402355 1.4228699
3.8591409 0.49605671 1.4238482
3.875406 0.48842326 1.4250017
3.9244294 0.48601207 1.4284799
3.9401257 0.4780266 1.4295931
3.8993235 0.46110299 1.4266973
3.9035838 0.45133922 1.4269989
3.9828272 0.45290342 1.4326215
4.0121436 0.44661984 1.4347011
4.0621433 0.44319984 1.4382484
4.0231776 0.42675886 1.4354829
4.0253196 0.41630939 1.4356344
4.0119233 0.40370396 1.4346831
4.0217533 0.39431384 1.43538
4.0085502 0.38181534 1.4344425
4.006866 0.37088481 1.4343224
4.0218434 0.3620849 1.4353845
4.0570011 0.35572049 1.4378786
4.0802379 0.34771413 1.4395268
4.1047401 0.33973458 1.4412649
4.1285281 0.33154082 1.4429522
4.1976061 0.32838148 1.4478533
4.2437344 0.32229882 1.4511256
4.2692847 0.31373462 1.4529381
4.2910166 0.3046293 1.4544795
4.2961268 0.29369122 1.4548414
4.3129802 0.28390735 1.4560366
4.3336754 0.27440965 1.4575045
4.3336849 0.26283085 1.4575045
4.3379045 0.2516419 1.4578032
4.381485 0.24396974 1.4608949
4.4080863 0.23458326 1.4627818
4.4130936 0.22322845 1.4631364
4.4045753 0.21073914 1.4625313
4.4306555 0.20103672 1.4643812
4.4158177 0.18806228 1.4633276
4.4336247 0.17757925 1.4645905
4.4348001 0.16581663 1.4646733
4.4366236 0.15409228 1.464802
4.5180001 0.11138374 1.4705734
4.6922956 0.10893029 1.4829397
4.7184415 0.097766176 1.4847943
4.7262077 0.085546374 1.4853446
4.6180978 0.067819685 1.4776731
5.1124802 -0.072772704 1.5127423
5.1100817 -0.086461373 1.5125713
5.0970535 -0.10024094 1.5116462
5.0930629 -0.11388675 1.5113621
5.0781498 -0.12755944 1.5103033
5.0307055 -0.14120924 1.5069363
5.0169177 -0.15463658 1.5059574
5.0459437 -0.16814414 1.5080159
5.1096077 -0.18202382 1.5125322
5.1537113 -0.19606879 1.5156608
5.2581468 -0.2110498 1.5230697
5.2911458 -0.22556852 1.5254103
5.3195229 -0.24018513 1.5274227
5.3172984 -0.25435275 1.5272641
5.2757335 -0.26763123 1.5243143
5.2310262 -0.28060913 1.5211415
5.2728243 -0.29573911 1.5241063
5.365263 -0.31262732 1.530664
5.4025049 -0.32818884 1.5333056
5.4274321 -0.34351015 1.5350733
5.4031053 -0.35707694 1.5333464
5.4297848 -0.37260473 1.5352385
5.5284619 -0.39141911 1.542239
5.5409837 -0.4067682 1.5431263
5.5534 -0.42217895 1.5440063
5.579495 -0.43836299 1.5458571
5.6233201 -0.45564997 1.5489655
5.6941981 -0.47471383 1.5539933
5.7001967 -0.49028316 1.5544181
5.7143693 -0.50639427 1.5554225
5.7507458 -0.5240252 1.5580025
5.7869263 -0.5418371 1.5605687
5.8349795 -0.56067789 1.563977
5.8538904 -0.57764643 1.5653179
5.8920703 -0.59617501 1.5680256
5.9258895 -0.61456567 1.5704243
5.9636111 -0.63345337 1.5730996
5.9847817 -0.65115643 1.5746006
5.9678559 -0.66568077 1.5733989
5.976326 -0.68237674 1.5739989
6.0161233 -0.70199239 1.5768216
6.0920334 -0.72523046 1.5822061
6.1360207 -0.74577439 1.585326
6.2859225 -0.77711999 1.59596
6.3110189 -0.79648161 1.5977395
6.3197021 -0.81425202 1.5983545
6.3189263 -0.83104932 1.5982985
6.3307972 -0.84923911 1.5991397
6.3530631 -0.86866832 1.6007184
6.3754859 -0.8882345 1.6023083
6.3956423 -0.90765202 1.6037372
6.4248848 -0.92827773 1.605811
6.4593401 -0.94970489 1.6082543
6.5487881 -0.97827137 1.6145992
6.6535525 -1.0092938 1.6220307
6.6925745 -1.0322096 1.6247981
6.6943593 -1.0503258 1.6249236
6.690834 -1.067723 1.6246725
6.7085862 -1.0880767 1.625931
6.74436 -1.1110934 1.6284679
6.7714458 -1.1330396 1.6303884
6.9032321 -1.17061 1.6397368
6.9634023 -1.1981049 1.6440043
6.9877734 -1.2204373 1.6457323
7.0605779 -1.2504483 1.6508961
7.0674944 -1.2704033 1.6513857
7.1222119 -1.2981005 1.6552664
7.1971765 -1.3294079 1.6605835
7.2737355 -1.3613811 1.6660136
7.463666 -1.4129471 1.6794865
7.857203 -1.5005244 1.7074038
8.1759539 -1.5771493 1.7300152
8.3683767 -1.8118911 1.7436546
8.2474823 -1.8099093 1.735077
8.1729183 -1.8167303 1.7297863
8.1135406 -1.8262904 1.7255727
8.0516024 -1.8349973 1.7211777
8.0516195 -1.8565044 1.7211777
8.0696096 -1.8818687 1.7224528
8.0696268 -1.9034239 1.7224528
8.069644 -1.9249791 1.7224528
8.0696611 -1.9465342 1.7224528
8.0696783 -1.9680892 1.7224528
6.47895 -1.6962142 1.6096035
6.4558249 -1.707936 1.6079621
6.395473 -1.7104515 1.6036799
6.2271018 -1.686 1.5917351
6.1589179 -1.6856292 1.5868975
6.110353 -1.6898383 1.5834515
6.0446897 -1.6894333 1.5787925
5.8902559 -1.6658328 1.5678365
5.8217645 -1.6637539 1.5629771
5.7814341 -1.6687067 1.5601153
5.7614837 -1.678852 1.5586993
5.6864104 -1.6741163 1.5533731
5.5921836 -1.6637943 1.5466878
5.4338984 -1.6354579 1.535459
5.3323917 -1.621949 1.5282578
5.2494473 -1.6130713 1.5223732
5.1891823 -1.610132 1.5180974
5.1574678 -1.6149808 1.515847
5.1355004 -1.6224549 1.5142879
5.1355114 -1.6361718 1.5142879
5.1355224 -1.6498886 1.5142879
5.1355333 -1.6636056 1.5142879
5.1355443 -1.6773225 1.5142879
5.1355553 -1.6910394 1.5142879
5.1282821 -1.7025511 1.5137713
5.0983329 -1.7070985 1.5116462
5.0261178 -1.6984643 1.5065229
4.93434 -1.6833651 1.5000119
4.8651066 -1.6748418 1.4951003
4.8078151 -1.6697234 1.4910355
4.7323098 -1.6584932 1.485679
4.6660118 -1.6498189 1.4809756
4.6352563 -1.6523106 1.4787934
4.6116176 -1.6569629 1.4771158
4.5940475 -1.6634887 1.4758688
4.5494633 -1.6609485 1.4727056
4.4505358 -1.639977 1.4656879
4.3545718 -1.6194769 1.4588802
4.2681694 -1.6017168 1.4527509
4.2199039 -1.5965683 1.4493265
4.189527 -1.5973415 1.4471712
4.1654024 -1.6001297 1.4454594
3.774121 -1.5142965 1.4177022
3.749342 -1.5153503 1.4159441
3.7333572 -1.5194976 1.4148097
3.6998014 -1.517067 1.4124291
3.6604793 -1.5123112 1.4096394
3.6191792 -1.506604 1.4067094
3.553195 -1.4913577 1.4020286
3.5185778 -1.487684 1.3995726
3.496779 -1.4887329 1.3980259
3.4823527 -1.4925077 1.3970022
3.4632995 -1.4944092 1.3956501
3.4500883 -1.4984922 1.3947127
3.4369771 -1.5025443 1.3937821
3.4207263 -1.5052822 1.3926289
3.4272184 -1.5170047 1.3930889
3.4283092 -1.5265931 1.3931657
3.4613104 -1.5860505 1.3955038
3.6436229 -1.6714174 1.4084344
3.7003567 -1.7049862 1.4124578
3.7456334 -1.7340127 1.4156686
4.6278586 -2.292429 1.4782324
4.6607432 -2.3200946 1.4805638
4.6878762 -2.3452432 1.4824876
4.7180624 -2.3719745 1.4846278
6.550766 -3.4624245 1.6145992
6.6716437 -3.5413561 1.6231711
6.6869326 -3.5669787 1.6242545
6.6778326 -3.5801542 1.6236081
6.6840181 -3.6011741 1.6240458
6.6594138 -3.6062467 1.6222998
6.6752329 -3.6322761 1.6234208
6.7545128 -3.6916642 1.6290424
6.8108678 -3.7393944 1.6330382
6.8421803 -3.7741601 1.635258
6.8709826 -3.8077571 1.6372995
6.9141641 -3.8492012 1.6403608
6.9540682 -3.8891132 1.6431899
7.0079908 -3.9368131 1.6470131
7.035274 -3.970335 1.648947
7.076592 -4.0116611 1.6518762
7.0706763 -4.027307 1.6514558
7.0119324 -4.0138106 1.6472884
6.9560671 -4.0015945 1.6433253
6.9010863 -3.989572 1.6394253
6.8618159 -3.9860389 1.6366391
6.8358879 -3.9897904 1.6347991
6.8359022 -4.0080452 1.6347991
6.852572 -4.0357442 1.6359802
6.8525863 -4.0540433 1.6359802
6.8507462 -4.0712805 1.6358488
6.8489075 -4.0885091 1.6357174
6.8230767 -4.091867 1.6338845
6.8396835 -4.1197171 1.6350613
6.9056258 -4.1764212 1.6397368
6.9658165 -4.2301092 1.6440043
6.9927711 -4.2645621 1.6459148
6.9410157 -4.252635 1.6422434
6.9144874 -4.2554102 1.6403608
6.8490238 -4.2348223 1.6357174
6.8103437 -4.2299304 1.6329732
6.775722 -4.2272749 1.6305171
6.7010026 -4.2001972 1.6252168
6.6395016 -4.1807461 1.6208546
6.6008496 -4.1748991 1.6181124
6.584125 -4.1822743 1.6169254
6.531898 -4.1677227 1.6132206
6.366807 -4.083169 1.601512
6.2638927 -4.0363111 1.5942127
6.1466904 -3.9800003 1.5859002
6.0922666 -3.9623489 1.5820397
6.0047369 -3.9236021 1.5758317
5.9554639 -3.9085314 1.5723364
5.9109774 -3.8962319 1.5691807
5.6743035 -3.8068106 1.5523934
5.597034 -3.7719517 1.5469131
5.5466847 -3.7541728 1.5433416
5.5732899 -3.7863345 1.5452275
5.1811986 -3.5858226 1.5174195
5.1582656 -3.5843811 1.5157924
5.1282172 -3.5780611 1.5136608
5.0998182 -3.5726874 1.5116462
5.0556955 -3.5565672 1.5085164
5.0309234 -3.5533016 1.5067589
4.997663 -3.5441389 1.5043998
4.9306726 -3.5118015 1.4996483
4.8615608 -3.4776542 1.4947467
4.8229799 -3.4641173 1.4920101
4.7819943 -3.4487152 1.489103
4.7093563 -3.411176 1.4839513
4.6264586 -3.3661168 1.4780722
4.548336 -3.3239472 1.4725318
4.5019722 -3.3036077 1.4692433
4.5188575 -3.3274949 1.4704399
4.5215573 -3.341459 1.4706306
4.5406246 -3.3670349 1.4719822
4.5406342 -3.3791587 1.4719822
4.5107102 -3.3699148 1.4698596
4.4471979 -3.3364446 1.4653552
4.3896317 -3.3069124 1.4612725
4.3549685 -3.2936051 1.4588138
4.3328042 -3.2891681 1.4572415
4.1882219 -3.2067688 1.4469877
4.1189537 -3.1672051 1.4420753
4.1018782 -3.1656427 1.4408638
4.0930886 -3.1701033 1.4402399
4.067625 -3.1621692 1.4384338
4.0656743 -3.1715734 1.4382948
4.0630727 -3.1804824 1.4381096
4.0827379 -3.2060444 1.4395034
4.092978 -3.2246311 1.4402289
4.1068187 -3.2459867 1.4412098
1.7361344 0.92548776 1.2687211
1.7372516 0.92153192 1.2687973
1.7378128 0.91722846 1.2688354
1.7394906 0.91360521 1.2689499
1.7505163 0.91566336 1.2697036
1.7917767 0.93598783 1.2725247
1.8026109 0.9377315 1.2732654
1.8094321 0.93700695 1.2737316
1.8150562 0.93552959 1.2741158
1.8147994 0.93052077 1.274098
1.8172636 0.92712605 1.2742662
1.8168259 0.92200601 1.2742361
1.8288347 0.92419887 1.275057
1.8353891 0.92313874 1.2755049
1.8415437 0.92181063 1.2759255
1.8453116 0.91906691 1.2761829
1.8496361 0.91662395 1.2764783
1.853845 0.91409159 1.2767658
1.8557544 0.91022277 1.2768962
1.8576674 0.90634608 1.2770267
1.8650727 0.90556753 1.2775328
1.882694 0.9105041 1.2787374
1.8879238 0.90839934 1.2790948
1.894649 0.90710104 1.2795544
1.8989228 0.90440559 1.2798463
1.9015694 0.90078819 1.280027
1.9072403 0.89881957 1.2804146
1.9097657 0.89509952 1.280587
1.9138181 0.89219737 1.2808638
1.9189067 0.88983524 1.2812114
1.9237297 0.88730252 1.2815409
1.9271067 0.88396811 1.2817715
1.9291695 0.8799144 1.2819123
1.9806821 0.88092291 1.2854333
1.978181 0.87432933 1.2852619
2.0496626 0.87296402 1.2901475
2.0516076 0.86844671 1.2902802
2.0555041 0.86488271 1.2905464
2.0641801 0.86364496 1.2911392
2.0870762 0.86930561 1.2927045
2.1074364 0.87361217 1.2940964
2.1160843 0.87215245 1.2946874
2.1227815 0.86970937 1.2951449
2.1300197 0.86748886 1.2956396
2.1261232 0.85994041 1.2953728
2.3241398 0.84210515 1.308906
2.3305433 0.83860528 1.3093435
2.3427863 0.83753264 1.3101803
2.3427143 0.83123636 1.3101749
3.4061213 0.60260701 1.3828452
3.4787297 0.60934925 1.3878081
3.5080802 0.60637617 1.389814
3.5449739 0.60485256 1.3923355
3.5644703 0.59947371 1.3936678
3.5765781 0.5924567 1.394495
3.5908067 0.58580971 1.3954672
3.6051488 0.57910967 1.3964471
3.608758 0.57019103 1.3966932
3.6211689 0.56298602 1.397541
3.6446636 0.55786753 1.3991467
3.675931 0.5541122 1.4012835
3.7142749 0.55152631 1.4039042
3.7467532 0.5476433 1.4061239
3.7684259 0.54160345 1.4076048
3.762938 0.5305357 1.4072292
3.7510381 0.51835489 1.4064151
3.7584801 0.50963235 1.4069233
3.8159616 0.5095185 1.4108521
3.8366196 0.50283146 1.4122636
3.8491838 0.49467847 1.4131219
3.8653727 0.48705575 1.414228
3.9135575 0.48453417 1.4175212
3.8955595 0.47120127 1.4162903
3.8961964 0.46088639 1.4163334
3.9102743 0.45263967 1.4172952
3.9766531 0.45223829 1.421832
4.0052567 0.44586232 1.4237868
4.0603156 0.44319841 1.4275498
4.0258489 0.42740014 1.4251931
4.0369973 0.41820648 1.4259546
4.0190411 0.40493461 1.4247266
4.0289106 0.39552644 1.4254006
4.0111957 0.38240442 1.4241891
4.0095081 0.37146148 1.4240732
4.0225916 0.36240926 1.4249669
4.0473871 0.35474774 1.4266613
4.0652885 0.34611237 1.4278843
4.0902843 0.33822808 1.4295924
4.1447072 0.33364397 1.4333117
4.2073526 0.32970652 1.4375932
4.2668748 0.32508647 1.4416614
4.2876225 0.31593457 1.443079
4.3007569 0.30586481 1.4439762
4.305892 0.29489842 1.4443266
4.3161907 0.28442422 1.4450297
4.3317256 0.2744081 1.4460912
4.3317351 0.2628293 1.4460912
4.337688 0.2518011 1.4464974
4.3659043 0.24274391 1.4484255
4.3923283 0.23337933 1.450231
4.405345 0.22273925 1.4511201
4.4233856 0.21244124 1.4523525
4.4550581 0.20312738 1.4545169
4.4343405 0.18963155 1.4531
4.43435 0.17777869 1.4531
4.4219532 0.16504192 1.4522521
4.4219627 0.1532222 1.4522521
4.4944315 0.11013564 1.4572029
4.5725908 0.10243669 1.4625447
4.7032204 0.097076401 1.4714725
4.7119541 0.084940016 1.472069
4.6134005 0.067694411 1.465332
4.5524354 0.052648932 1.4611642
5.0610929 -0.073516347 1.4959235
5.0450172 -0.087243952 1.4948242
5.0648313 -0.10053506 1.4961776
5.0891323 -0.1139002 1.4978378
5.0922174 -0.12748897 1.4980478
5.0677385 -0.14114237 1.496374
5.0608201 -0.15468107 1.4959004
5.100637 -0.16835089 1.4986211
5.1509976 -0.18229961 1.5020624
5.1858993 -0.19637923 1.5044472
5.2983565 -0.21154624 1.5121326
5.3221536 -0.2260475 1.5137584
5.3499351 -0.24074347 1.5156565
5.3981242 -0.25598857 1.5189493
5.3608665 -0.26958513 1.516402
5.2847576 -0.28201199 1.5111995
5.29251 -0.29635096 1.5117285
5.3765302 -0.31304413 1.5174701
5.4000745 -0.32819074 1.5190787
5.3979735 -0.34254837 1.5189342
5.3765645 -0.35615441 1.5174701
5.4172664 -0.37219346 1.5202513
5.5557151 -0.3927204 1.5297129
5.5942311 -0.40935436 1.5323446
5.6230989 -0.42572105 1.5343168
5.6555524 -0.44242734 1.5365338
5.6865058 -0.45922554 1.5386487
5.7156467 -0.47608569 1.5406396
5.6873822 -0.48967305 1.5387069
5.6830492 -0.50460243 1.5384099
5.7377267 -0.52334845 1.5421461
5.7632332 -0.54041052 1.5438886
5.8229547 -0.56001818 1.5479693
5.8417964 -0.57695711 1.5492562
5.8866782 -0.59596938 1.5523229
5.9329495 -0.6153307 1.5554843
6.0138435 -0.63774705 1.561012
6.0507836 -0.65691352 1.5635359
6.045011 -0.67258501 1.5631406
6.0435796 -0.68861222 1.5630417
6.0522695 -0.70556104 1.5636349
6.0717516 -0.72357559 1.5649654
6.1073432 -0.74325907 1.567397
6.2522902 -0.77404761 1.5773022
6.3432488 -0.80007792 1.5835178
6.352025 -0.81795216 1.5841166
6.2904272 -0.8282851 1.5799057
6.2948761 -0.8455869 1.580209
6.3353596 -0.86699057 1.5829748
6.3814607 -0.88926113 1.5861245
6.4057174 -0.90918922 1.5877814
6.4301577 -0.92926931 1.5894508
6.4663382 -0.95093381 1.5919224
6.5537577 -0.97927535 1.597896
6.6157689 -1.0048009 1.602133
6.661375 -1.0284946 1.6052488
6.7037625 -1.0519985 1.6081446
6.7377067 -1.0745704 1.6104635
6.7774396 -1.0981336 1.6131779
6.7993169 -1.1193633 1.6146719
6.8066497 -1.1385975 1.6151721
6.9379797 -1.1762114 1.6241465
6.9987879 -1.2039076 1.628301
7.0299258 -1.2273817 1.630428
7.0574017 -1.2504508 1.6323047
7.0781536 -1.2726005 1.6337218
7.1190081 -1.298103 1.6365128
7.2082896 -1.3317631 1.6426132
7.2558637 -1.3589512 1.6458634
7.5954909 -1.4358349 1.6690724
7.9318213 -1.5139666 1.6920559
8.0545912 -1.5566006 1.7004447
8.0023489 -1.7185369 1.6968651
8.1679764 -1.772826 1.7081826
8.1569309 -1.7924265 1.7074267
8.123765 -1.8074548 1.7051589
8.1098909 -1.8262932 1.7042096
8.0479803 -1.8350002 1.6999776
8.0479975 -1.8565073 1.6999776
8.065979 -1.8818716 1.7012054
8.0659962 -1.9034268 1.7012054
8.0660133 -1.924982 1.7012054
8.0660305 -1.946537 1.7012054
8.0480833 -1.9640429 1.6999776
6.4414048 -1.687948 1.5901783
6.399591 -1.6950628 1.58732
6.3437004 -1.6985182 1.5834997
6.2100382 -1.6824825 1.5743649
6.1189194 -1.6763449 1.5681374
6.0260568 -1.6692806 1.5617907
5.9871526 -1.6754682 1.5591311
5.863194 -1.6595496 1.5506599
5.8285313 -1.6661975 1.5482903
5.7911816 -1.6719538 1.545737
5.7680845 -1.6812943 1.544158
5.7017894 -1.6789279 1.539627
5.6200933 -1.6720363 1.5340436
5.4880157 -1.650929 1.5250175
5.4028516 -1.6420715 1.5191969
5.2806768 -1.6224396 1.5108474
5.2049913 -1.6152413 1.5056748
5.1625128 -1.6170754 1.5027714
5.1331906 -1.6224568 1.500767
5.1332016 -1.6361737 1.500767
5.1332126 -1.6498905 1.500767
5.1332235 -1.6636075 1.500767
5.1332345 -1.6773244 1.500767
5.133245 -1.6910414 1.500767
5.1187148 -1.7003539 1.4997733
5.0960398 -1.7071004 1.4982232
5.0308509 -1.7006217 1.493768
4.9604902 -1.6921868 1.4889593
4.8622956 -1.6746483 1.4822488
4.8056526 -1.6697252 1.4783776
4.7301812 -1.6584948 1.4732199
4.6621947 -1.6492679 1.4685735
4.6351528 -1.6529543 1.4667251
4.6154299 -1.6588891 1.4653767
4.5949006 -1.6644524 1.4639732
4.5531459 -1.6628537 1.4611195
4.4614797 -1.6443144 1.4548552
4.3651309 -1.6237047 1.448271
4.3035059 -1.6143956 1.4440594
4.2223482 -1.5980587 1.4385133
4.2006226 -1.6018293 1.4370283
4.1635294 -1.6001312 1.4344931
3.764564 -1.5114557 1.4072292
3.7437737 -1.5139372 1.405808
3.730715 -1.5191455 1.4049152
3.6990838 -1.5174181 1.4027532
3.6653271 -1.5147305 1.4004462
3.6302698 -1.5113746 1.3980503
3.5968022 -1.5084319 1.3957629
3.5772412 -1.5105996 1.3944259
3.5053766 -1.4926295 1.3895149
3.4865432 -1.4947292 1.3882277
3.4617419 -1.4944104 1.3865325
3.4485366 -1.4984936 1.3856298
3.4354315 -1.5025455 1.3847338
3.4159563 -1.5040025 1.3834026
3.4159634 -1.5131297 1.3834026
3.4159708 -1.5222571 1.3834026
3.7100832 -1.7097763 1.4034946
3.7400744 -1.7323748 1.4055433
4.6733012 -2.3144412 1.4692965
4.7162557 -2.3469319 1.4722306
4.7307448 -2.3663163 1.4732199
4.7456627 -2.3859799 1.4742384
5.3152332 -2.767906 1.5131471
5.3331709 -2.7909844 1.5143719
5.3502245 -2.8137178 1.5155362
6.7182245 -3.5665734 1.6089962
6.6972928 -3.5738149 1.6075654
6.7016439 -3.5939369 1.6078615
6.8584967 -3.6928587 1.6185768
6.8554134 -3.7095745 1.6183653
6.8550744 -3.7277052 1.618341
6.8604002 -3.7488058 1.6187038
6.8790674 -3.776969 1.6199782
6.8846974 -3.7983236 1.6203619
6.9072666 -3.8287296 1.6219028
6.9442492 -3.866971 1.6244283
6.9710498 -3.8999326 1.6262585
7.0252614 -3.9478559 1.6299611
7.0389571 -3.9740577 1.6308959
7.0595946 -4.0041213 1.6323047
7.0596094 -4.0229821 1.6323047
7.0185003 -4.0191722 1.629495
6.9644227 -4.0079584 1.6257995
6.9111724 -3.9969161 1.6221604
6.8587303 -3.9860413 1.6185768
6.8328137 -3.9897928 1.6168052
6.8328285 -4.0080476 1.6168052
6.8494902 -4.0357466 1.6179425
6.8495049 -4.0540457 1.6179425
6.8476653 -4.0712829 1.6178159
6.8328867 -4.0810661 1.6168052
6.7943697 -4.0770502 1.6141729
6.8108439 -4.1047597 1.6152973
6.8893642 -4.1687498 1.6206607
6.9569407 -4.2267461 1.6252763
6.9761372 -4.2566237 1.6265867
6.9246035 -4.2447782 1.6230651
6.8850489 -4.2397738 1.6203619
6.8201103 -4.2194109 1.6159245
6.7690377 -4.2070117 1.6124343
6.7133765 -4.1915779 1.6086309
6.6365018 -4.1630187 1.6033782
6.5761471 -4.144083 1.599254
6.5500588 -4.1457276 1.5974709
6.5217938 -4.1459007 1.595539
6.4705248 -4.1317654 1.5920355
6.3416138 -4.0693707 1.5832281
6.2215624 -4.0117865 1.5750257
6.1913462 -4.009563 1.5729607
6.147522 -3.9986589 1.569966
6.0586557 -3.9592016 1.5638943
5.9402084 -3.9005928 1.5558016
5.879034 -3.8776655 1.5516219
5.8428454 -3.8703206 1.5491486
5.4825139 -3.6994414 1.5245298
5.4797554 -3.7122869 1.5243406
5.4964314 -3.7378032 1.5254788
5.1788688 -3.5858245 1.5037823
5.160152 -3.5871844 1.5025027
5.1248732 -3.5773685 1.5000921
5.0852323 -3.564435 1.4973834
5.0547686 -3.5574765 1.4953015
5.0087538 -3.5398302 1.4921575
4.9796867 -3.5334537 1.490171
4.9273357 -3.5110395 1.4865942
4.8617091 -3.4792545 1.4821105
4.8171406 -3.4615955 1.4790654
4.7526126 -3.429924 1.4746567
4.6837139 -3.3948798 1.4699494
4.6117363 -3.3573265 1.4650319
4.5454745 -3.3233788 1.4605048
4.5133252 -3.312984 1.4583079
4.5547667 -3.3541865 1.4611382
4.5602474 -3.3702178 1.4615119
4.578824 -3.3955598 1.4627801
4.5615005 -3.3954589 1.4615963
4.5199571 -3.3779683 1.4587578
4.4467607 -3.3375661 1.453757
4.3876581 -3.3069139 1.4497192
4.3582587 -3.2973964 1.4477103
4.3423753 -3.297519 1.4466245
4.2082682 -3.2227831 1.4374626
4.1471272 -3.1892104 1.4332855
4.1308212 -3.1882887 1.4321711
4.1192193 -3.1907525 1.4313779
4.0841699 -3.1757829 1.4289832
4.0775976 -3.1817994 1.4285337
4.0703917 -3.1873081 1.4280409
4.0809026 -3.2060459 1.4287581
4.0888243 -3.2228935 1.4292986
4.0956707 -3.2389729 1.4297657
1.734241 0.92479801 1.2640717
1.7395937 0.92345929 1.2644235
1.7420601 0.92031837 1.2645855
1.7454334 0.91771901 1.2648071
1.7547102 0.91869724 1.2654171
1.7721002 0.92454529 1.2665607
1.7760905 0.92221081 1.2668228
1.7785306 0.91892374 1.2669832
1.7824322 0.91649771 1.2672396
1.7852485 0.91340458 1.2674245
1.7928245 0.9131186 1.2679225
1.8048089 0.91539466 1.2687106
1.8233941 0.9214853 1.2699327
1.8330988 0.92228174 1.2705708
1.8416535 0.92235672 1.2711332
1.8454236 0.91961265 1.2713809
1.8492093 0.91685736 1.2716297
1.8520595 0.91354489 1.271817
1.8530142 0.90913367 1.2718794
1.8539699 0.90471792 1.271942
1.8600472 0.90319681 1.2723415
1.8738682 0.90600729 1.2732503
1.8799833 0.90442193 1.2736522
1.888347 0.90405881 1.2742021
1.8940839 0.90219176 1.2745792
1.8977153 0.89913011 1.2748177
1.9023627 0.89660788 1.2751231
1.9038719 0.89234281 1.2752221
1.9079009 0.88944256 1.2754868
1.9139746 0.88762915 1.2758861
1.9208171 0.88619792 1.2763358
1.9252117 0.88341606 1.2766247
1.9283009 0.87991369 1.2768276
1.9800317 0.88104796 1.2802285
1.9783479 0.87487662 1.2801175
2.0510678 0.8741256 1.2848984
2.0514607 0.86883175 1.2849239
2.0539942 0.86459327 1.2850902
2.0614831 0.8627758 1.2855825
2.0819256 0.86724734 1.2869267
2.1015823 0.87122786 1.2882192
2.1176131 0.87335098 1.2892733
2.126349 0.87188232 1.2898475
2.1289213 0.86742139 1.2900164
2.1262786 0.86046839 1.2898422
2.3201075 0.84082913 1.3025843
2.3252928 0.83682156 1.302925
3.4226608 0.606601 1.3750579
3.4816344 0.61032414 1.3789353
3.5016434 0.60532713 1.3802506
3.5329769 0.6026355 1.3823104
3.5538483 0.59757555 1.3836823
3.5679028 0.59098816 1.3846059
3.5820684 0.58434856 1.3855369
3.6014721 0.57869291 1.3868122
3.6169412 0.57214797 1.3878288
3.6320217 0.56544375 1.3888199
3.6472285 0.55868328 1.3898194
3.6700079 0.55329299 1.3913167
3.711149 0.55125034 1.3940213
3.7445116 0.54753852 1.3962145
3.7746048 0.54304802 1.3981926
3.767411 0.53165019 1.3977191
3.7571523 0.51974452 1.3970442
3.7724879 0.51238763 1.398052
3.806967 0.50825894 1.4003186
3.829663 0.50193989 1.4018104
3.8392696 0.49330619 1.4024414
3.854794 0.48559704 1.4034617
3.8949177 0.48179498 1.4060993
3.8910084 0.47075358 1.4058418
3.8832455 0.45912865 1.4053308
3.8992288 0.45120659 1.4063811
3.9506338 0.44856587 1.4097606
3.9857774 0.44322994 1.4120708
4.0364518 0.43997613 1.4154022
4.021049 0.42697003 1.4143889
4.0345364 0.41811439 1.4152751
4.0217056 0.40555122 1.4144309
4.0341668 0.3964828 1.4152496
4.0106626 0.38257185 1.4137037
4.0134301 0.37220529 1.4138851
4.0233407 0.36273405 1.4145362
4.0333004 0.35321596 1.4151903
4.0458975 0.34396684 1.4160181
4.0700102 0.33602542 1.417603
4.1378675 0.3330619 1.4220641
4.1884847 0.32776889 1.4253914
4.2478886 0.32318398 1.4292967
4.2611284 0.31326249 1.4301666
4.3005276 0.30604425 1.4327564
4.3186607 0.29641712 1.433948
4.3297668 0.28598532 1.4346776
4.3454065 0.27593869 1.4357054
4.3506513 0.2648173 1.4360497
4.3596649 0.25401714 1.4366416
4.3762798 0.24385291 1.4377334
4.4091129 0.23501614 1.4398916
4.4195294 0.22410622 1.4405758
4.4541163 0.21512198 1.4428493
4.4946227 0.20642221 1.4455117
4.4691763 0.19245222 1.443838
4.430541 0.17764303 1.4412973
4.4014916 0.1637238 1.4393868
4.398438 0.15174332 1.4391853
4.4076505 0.14058796 1.4397905
4.4605484 0.13214663 1.4432678
4.4637089 0.12040931 1.443475
4.4738569 0.10905978 1.4441414
4.5298457 0.10018787 1.447822
4.6799827 0.095964655 1.4576921
4.6973863 0.084317416 1.4588356
4.623507 0.068267882 1.4539778
4.5791082 0.053926393 1.4510581
5.029604 -0.047060557 1.4806702
5.011004 -0.060841136 1.4794466
5.0306268 -0.073944338 1.4807359
4.9925518 -0.087870412 1.478232
5.0263138 -0.10089093 1.4804511
5.0542955 -0.11413299 1.48229
5.0756178 -0.12755407 1.4836911
5.0725727 -0.14113174 1.4834902
5.0680079 -0.15469165 1.4831893
5.0756502 -0.16827103 1.4836911
5.1132703 -0.18207932 1.4861636
5.1235075 -0.19584371 1.486836
5.4333568 -0.25673032 1.5072033
5.4294786 -0.27117217 1.5069475
5.3592005 -0.28393376 1.5023267
5.3655815 -0.29844028 1.5027454
5.4026957 -0.31391329 1.5051845
5.4117031 -0.32865679 1.5057759
5.5352459 -0.39193705 1.5138949
5.586359 -0.40910801 1.5172544
5.6914296 -0.42919922 1.5241609
5.7160635 -0.44569132 1.5257797
5.7169375 -0.46102238 1.5258363
5.7325063 -0.47719684 1.526859
5.6848226 -0.48967507 1.5237234
5.6804914 -0.50460452 1.523438
5.7260513 -0.52275854 1.5264323
5.7377586 -0.53886199 1.5272012
5.790339 -0.55790722 1.5306569
5.8281736 -0.5761553 1.5331435
5.8778725 -0.59550488 1.5364099
5.920558 -0.6145699 1.5392151
5.9911933 -0.63613093 1.5438577
6.052197 -0.65726244 1.5478672
6.0732565 -0.67526531 1.5492508
6.0999541 -0.69388342 1.551005
6.0596962 -0.70649529 1.5483577
6.0515862 -0.72193015 1.5478235
6.0737953 -0.74026811 1.5492828
6.2711797 -0.77621698 1.5622578
6.3627348 -0.80237067 1.5682756
6.3417335 -0.81717253 1.5668941
6.276669 -0.8271085 1.562616
6.2993593 -0.846398 1.5641067
6.3436308 -0.86825216 1.5670161
6.4011989 -0.89188397 1.5707996
6.409327 -0.90996146 1.5713331
6.4321699 -0.92986643 1.5728339
6.478334 -0.95278335 1.5758677
6.5260067 -0.976138 1.5790005
6.5946798 -1.0024621 1.5835139
6.651371 -1.0275724 1.5872397
6.7221255 -1.054879 1.59189
6.7635012 -1.0785304 1.5946089
6.8274431 -1.1055613 1.5988113
6.8570852 -1.1280419 1.6007588
6.8552408 -1.1461055 1.6006366
6.9750357 -1.1821593 1.6085107
7.0160222 -1.2069811 1.6112039
7.0611057 -1.2326499 1.6141665
7.1027794 -1.2580279 1.6169049
7.1308413 -1.2814687 1.6187487
7.1723266 -1.3072253 1.6214747
7.2339077 -1.3364997 1.6255217
7.3007679 -1.3669833 1.6299157
7.5445471 -1.4277883 1.6459395
7.9816475 -1.5231555 1.6746711
8.0715294 -1.5601959 1.6805784
7.4584498 -1.6125884 1.6402694
7.6914105 -1.6788319 1.6555817
8.0323811 -1.7680792 1.6779938
8.0545759 -1.7940811 1.6794515
8.0880899 -1.8225424 1.6816534
8.0443592 -1.835003 1.6787777
8.0443764 -1.8565102 1.6787777
8.0623493 -1.8818744 1.679958
8.0623665 -1.9034296 1.679958
8.0623837 -1.9249848 1.679958
8.0624008 -1.9465399 1.679958
8.0444622 -1.9640458 1.6787777
7.9675832 -1.9680071 1.6737232
6.3479824 -1.6663271 1.5672603
6.2926998 -1.6699423 1.5636258
6.2345266 -1.6725558 1.5598011
6.0994315 -1.6558673 1.5509202
6.0043292 -1.648437 1.5446682
5.9338841 -1.6467181 1.5400372
5.8800778 -1.6488634 1.5364995
5.8258963 -1.6506243 1.5329373
5.8111801 -1.6623665 1.5319692
5.8025236 -1.6756233 1.5313995
5.7700934 -1.6825196 1.5292671
5.703723 -1.680137 1.5249038
5.6144457 -1.6711932 1.5190349
5.4950843 -1.6535406 1.5111883
5.4142966 -1.6459074 1.5058776
5.2937722 -1.6267573 1.4979548
5.2252274 -1.6216019 1.4934486
5.1749744 -1.621281 1.490145
5.1454988 -1.6266536 1.4882069
5.1381903 -1.6382895 1.4877257
5.1309028 -1.6498923 1.487246
5.1309133 -1.6636093 1.487246
5.1309242 -1.6773262 1.487246
5.1309352 -1.6910431 1.487246
5.1091743 -1.6981628 1.4858148
5.0875974 -1.7052222 1.484396
5.0449743 -1.7056768 1.4815938
4.9856319 -1.7007028 1.4776926
4.6583791 -1.6487169 1.4561806
4.6350484 -1.6535988 1.4546466
4.6192527 -1.6608204 1.4536076
4.59868 -1.6663822 1.4522549
4.5597143 -1.6657197 1.449693
4.4742017 -1.6492516 1.444072
4.3914561 -1.6332611 1.4386327
4.3389683 -1.627129 1.4351823
4.2014456 -1.6027689 1.4261425
3.7524467 -1.5076857 1.3966286
3.7266471 -1.5083103 1.3949325
3.7202582 -1.5159239 1.3945119
3.6936386 -1.5160213 1.3927619
3.6636777 -1.5147318 1.3907923
3.6286364 -1.5113759 1.3884887
3.5998635 -1.5102015 1.3865972
3.5721679 -1.5092829 1.3847764
3.5072012 -1.4939344 1.380506
3.4883394 -1.4960289 1.3792658
3.4601843 -1.4944117 1.3774149
3.446985 -1.4984947 1.3765469
3.4338856 -1.5025467 1.3756855
3.411195 -1.5027251 1.3741937
3.404772 -1.5092767 1.3737711
3.4026408 -1.517519 1.3736305
3.3951867 -1.523596 1.3731402
3.7258985 -1.7171319 1.3948722
3.7409723 -1.7334688 1.3958625
4.4710798 -2.1978221 1.443838
4.554842 -2.2483571 1.4493423
4.7139063 -2.3342316 1.4597952
4.769032 -2.3725181 1.4634173
4.7913303 -2.3957124 1.4648821
5.312819 -2.7395058 1.4991488
5.3337464 -2.7639577 1.5005234
5.3128414 -2.7679079 1.4991488
5.3457961 -2.79843 1.5013137
5.4716487 -2.8754001 1.5095837
5.547843 -2.9281752 1.5145901
6.7655029 -3.5921679 1.5946089
7.0799584 -3.8089068 1.6152711
6.9727402 -3.7721264 1.608224
6.9691677 -3.7888908 1.6079884
6.9691825 -3.8075187 1.6079884
6.9173484 -3.7987969 1.604581
6.9238024 -3.8207002 1.6050042
6.9650054 -3.8611529 1.6077108
6.9881148 -3.8921368 1.6092286
7.0016727 -3.9181035 1.6101184
7.0152831 -3.9441712 1.611012
7.0152979 -3.9629221 1.611012
7.0426631 -3.9966114 1.6128093
7.0643172 -4.0273118 1.6142313
7.0153427 -4.0191746 1.611012
6.9517221 -4.0026584 1.6068302
6.8948798 -3.9895771 1.6030939
6.8426604 -3.9787786 1.5996614
6.816853 -3.9825504 1.5979645
6.7912407 -3.9862943 1.5962805
6.7949038 -4.0065169 1.5965202
6.8168969 -4.0372109 1.5979645
6.8297977 -4.0628142 1.5988113
6.8298125 -4.0810685 1.5988113
6.7913132 -4.0770526 1.5962805
6.8013725 -4.1010394 1.5969404
6.8601146 -4.153491 1.6007997
6.9006848 -4.1956029 1.6034647
6.9101267 -4.2195983 1.6040841
6.8969507 -4.2302642 1.6032174
6.8782086 -4.2375512 1.6019849
6.8299289 -4.2271056 1.5988113
6.7659926 -4.2070141 1.5946089
6.6996908 -4.1851568 1.5902512
6.6538773 -4.1753387 1.5872397
6.5731888 -4.1440854 1.5819367
6.547112 -4.14573 1.5802221
6.4837656 -4.1243906 1.5760586
6.4061809 -4.0939465 1.5709594
6.2223196 -3.9973752 1.5588769
6.1164956 -3.9482818 1.5519221
6.0651712 -3.9326119 1.5485486
6.0521221 -3.9406412 1.5476904
6.0247431 -3.9395869 1.5458903
5.9361424 -3.8997142 1.5400674
5.8492084 -3.8604255 1.5343543
5.813488 -3.8532958 1.5320063
5.3901215 -3.6411979 1.5041838
5.3585386 -3.6350558 1.5021077
5.3783007 -3.6622751 1.5034053
5.2517462 -3.5936582 1.4950889
5.2517571 -3.6076941 1.4950889
5.2517686 -3.6217301 1.4950889
5.1914144 -3.5956993 1.4911225
5.1701312 -3.5953832 1.489723
5.1262016 -3.5798013 1.4868358
5.0778427 -3.5610096 1.4836576
5.0454392 -3.5527203 1.4815277
4.9877419 -3.5271311 1.4777358
4.9265475 -3.4988563 1.4737141
4.884223 -3.4831326 1.4709322
4.8316727 -3.4601767 1.4674788
4.793983 -3.4471607 1.4650016
4.7244463 -3.4119546 1.4604317
4.6723819 -3.3884873 1.45701
4.6029515 -3.352659 1.4524473
4.5301385 -3.3140969 1.4476624
4.5080791 -3.3107307 1.4462123
4.5498509 -3.3521712 1.4489564
4.5668373 -3.3763242 1.4500718
4.5854759 -3.4017396 1.4512959
4.5594482 -3.3954606 1.449585
4.5082607 -3.3710659 1.4462211
4.442678 -3.3360751 1.4419112
4.3879666 -3.3085585 1.4383159
4.3589258 -3.2992966 1.436407
4.3359575 -3.2942834 1.4348972
4.2394319 -3.2356091 1.4285543
4.2243834 -3.2359395 1.427565
4.1654906 -3.2040436 1.4236948
4.1316605 -3.1902752 1.4214714
4.1158028 -3.1895993 1.420429
4.0810151 -3.1748075 1.4181426
4.0665894 -3.1749771 1.4171942
4.0617008 -3.1821885 1.4168725
4.0675874 -3.1974468 1.4172587
4.0754609 -3.2142305 1.4177754
4.0784264 -3.2273531 1.4179697
1.7334597 0.92479742 1.2594982
1.7396483 0.92397618 1.2598889
1.7436798 0.92179573 1.2601434
1.7508557 0.92151797 1.2605964
1.757337 0.92077863 1.2610055
1.7656332 0.92110574 1.2615294
1.7659663 0.91657889 1.2615502
1.7662336 0.91201067 1.2615669
1.7705251 0.90985012 1.2618377
1.774581 0.90752602 1.2620937
1.7831522 0.90785909 1.2626348
1.7938308 0.90939081 1.263309
1.8149638 0.91701138 1.2646437
1.8260907 0.91866302 1.2653463
1.8346727 0.9187727 1.2658882
1.8416332 0.91789615 1.2663276
1.8486918 0.91703904 1.2667732
1.8502758 0.9129988 1.266873
1.8512291 0.90858948 1.266933
1.8504193 0.90317154 1.2668815
1.8585707 0.90283453 1.2673962
1.871428 0.9051069 1.268208
1.8762048 0.90277636 1.2685095
1.8834847 0.90181804 1.2689691
1.8904672 0.90065539 1.2694099
1.8947258 0.89794898 1.2696786
1.8990037 0.89523017 1.2699486
1.9000078 0.89069545 1.2700118
1.9031615 0.88732708 1.2702107
1.9124365 0.88726175 1.2707963
1.920974 0.88674891 1.2713352
1.9263992 0.88451886 1.2716777
1.9301817 0.88138211 1.2719164
2.0524764 0.87529004 1.2796372
2.049113 0.86812389 1.2794245
2.0540431 0.8650738 1.2797357
2.0613487 0.86316538 1.2801969
2.0854673 0.86943638 1.2817199
2.1032343 0.87249053 1.2828418
2.1191454 0.87455213 1.2838465
2.125391 0.8718816 1.2842407
2.1275442 0.86722064 1.2843764
2.1283851 0.86192453 1.2844293
2.3190622 0.8408283 1.2964668
3.4328339 0.60919058 1.3667746
3.4819849 0.61074209 1.3698778
3.5113523 0.60776138 1.3717319
3.5353389 0.60347676 1.3732461
3.5627677 0.59978819 1.3749776
3.5733581 0.5924542 1.3756459
3.5911434 0.58653939 1.3767686
3.601903 0.57910705 1.3774474
3.618937 0.57287073 1.3785226
3.6303859 0.56544244 1.379245
3.641907 0.55796695 1.3799721
3.6651618 0.55267942 1.38144
3.7145681 0.55221128 1.3845594
3.7461553 0.54815781 1.3865535
3.7768528 0.54377198 1.3884914
3.7657144 0.53164876 1.3877876
3.7606776 0.52067363 1.3874689
3.7747331 0.51307905 1.388356
3.7900298 0.50562418 1.3893213
3.8163736 0.49996898 1.3909843
3.829397 0.49193969 1.3918061
3.8492422 0.48496619 1.3930588
3.8708944 0.47817972 1.3944255
3.8663414 0.46709481 1.3941375
3.879113 0.45875314 1.3949435
3.9186306 0.45446888 1.3974382
3.9637229 0.45081821 1.400285
3.9989908 0.44546333 1.4025114
4.026917 0.43884632 1.4042742
4.0147676 0.42632678 1.4035065
4.0237274 0.41684625 1.4040718
4.0058727 0.40361193 1.4029438
4.0179858 0.39453462 1.403708
4.0297432 0.38534531 1.4044499
4.0325389 0.37492654 1.4046259
4.0335135 0.36426064 1.4046869
4.0289121 0.35289356 1.4043958
4.0350337 0.34286097 1.4047818
4.0629439 0.33539873 1.4065436
4.1582408 0.33565754 1.4125603
4.2007685 0.32938448 1.4152451
4.2270322 0.32107142 1.416903
4.25634 0.31294879 1.4187528
4.3002982 0.30622381 1.4215279
4.321146 0.29687366 1.4228436
4.3330121 0.28650719 1.4235922
4.3486824 0.27645031 1.4245813
4.3644671 0.2663205 1.4255772
4.3868308 0.25671628 1.4269886
4.4233208 0.24826425 1.4292921
4.4357553 0.23751554 1.4300766
4.4572282 0.22746575 1.4314318
4.4869771 0.21797982 1.4333096
4.5227551 0.2088131 1.4355681
4.498981 0.19488972 1.4340663
4.4213133 0.17710638 1.4291618
4.3995094 0.16372222 1.4277846
4.4143801 0.15297186 1.4287229
4.4280572 0.14206323 1.4295859
4.4677372 0.13272709 1.4320908
4.4488673 0.11963004 1.4308984
4.4424882 0.10735768 1.4304953
4.485002 0.097821116 1.4331789
4.6514659 0.094574392 1.4436886
4.6709666 0.083102867 1.4449193
4.6231155 0.068346083 1.4418974
4.5915375 0.054570392 1.4399029
4.9856448 -0.007901445 1.4647824
4.994854 -0.021001875 1.465363
5.0273285 -0.033612899 1.4674127
5.0413823 -0.046774819 1.4682994
5.0289068 -0.060484104 1.4675109
5.0153856 -0.074142389 1.4666566
4.9537778 -0.088326931 1.4627663
4.975574 -0.10136656 1.4641418
5.0025101 -0.11448628 1.4658418
5.0864382 -0.12749791 1.4711399
5.0994515 -0.14108256 1.4719609
5.1056452 -0.15473045 1.4723513
5.0979304 -0.16836134 1.4718635
5.1157975 -0.18211147 1.4729908
5.1187096 -0.19582325 1.473174
5.7342229 -0.43142724 1.5120234
5.7973828 -0.45003515 1.51601
5.7858911 -0.46491763 1.5152839
5.7943058 -0.48087528 1.5158145
5.7639194 -0.49455842 1.513895
5.760778 -0.50978041 1.5136962
5.7810864 -0.52651286 1.5149775
5.7560782 -0.5402813 1.5133979
5.7903843 -0.55809617 1.515563
5.8570557 -0.57846218 1.5197713
5.9012952 -0.59748381 1.5225633
5.956954 -0.61763859 1.5260766
6.0184474 -0.63856459 1.5299579
6.0100083 -0.65395546 1.5294243
6.0190191 -0.67081106 1.5299923
6.0921469 -0.69343412 1.5346081
6.0707917 -0.70776761 1.5332593
6.0519032 -0.72221994 1.5320661
6.0964479 -0.7427386 1.5348773
6.2891564 -0.77829731 1.5470425
6.3855839 -0.80501068 1.5531291
6.3556185 -0.81893671 1.5512365
6.2902408 -0.82888055 1.5471083
6.3593779 -0.85335195 1.5514722
6.4213367 -0.87738001 1.5553827
6.4786959 -0.90120625 1.5590031
6.4654484 -0.91696346 1.5581658
6.4948201 -0.93781936 1.5600191
6.5896778 -0.96695101 1.5660068
6.6465993 -0.99178541 1.5695994
6.6588736 -1.0111502 1.5703732
6.6680231 -1.0301683 1.57095
6.7442036 -1.0582622 1.5757585
6.8004799 -1.08403 1.5793101
6.9026599 -1.1165262 1.5857596
6.9786501 -1.1458318 1.5905561
6.9665723 -1.1627411 1.5897926
7.0028081 -1.1867384 1.5920793
7.0128636 -1.2069836 1.5927131
7.0350037 -1.2291361 1.5941098
7.1159081 -1.2605784 1.5992161
7.172473 -1.2885897 1.6027861
7.220305 -1.3154937 1.6058048
7.2590356 -1.3411601 1.6082488
7.3491201 -1.3755977 1.6139346
7.8319921 -1.4770719 1.6444163
7.978054 -1.5231583 1.6536357
8.0201006 -1.5518448 1.656289
7.9636741 -1.5632803 1.6527258
7.4866996 -1.6187919 1.6226087
7.644537 -1.670202 1.6325713
7.9915285 -1.7605774 1.6544745
8.068943 -1.7977586 1.6593603
8.1129961 -1.8284516 1.6621403
8.0586853 -1.8387672 1.6587106
8.0587025 -1.8603222 1.6587106
8.0587196 -1.8818774 1.6587106
8.0587368 -1.9034326 1.6587106
8.058754 -1.9249878 1.6587106
8.0587711 -1.9465429 1.6587106
8.0408401 -1.9640486 1.6575776
6.3008304 -1.6557442 1.5477355
6.2463374 -1.6594257 1.5442947
6.201138 -1.6650862 1.5414406
6.0986466 -1.656354 1.5349703
5.9638577 -1.6390098 1.5264611
5.8892879 -1.6361406 1.5217531
5.8421063 -1.6398571 1.518774
5.7965608 -1.6437426 1.5158982
5.787282 -1.6568274 1.5153117
5.7813368 -1.6707394 1.5149357
5.7445545 -1.6764256 1.5126131
5.6992269 -1.6796215 1.5097512
5.6206546 -1.6735635 1.5047908
5.5202026 -1.6610959 1.4984492
5.4327998 -1.6516976 1.4929314
5.3091741 -1.6317227 1.485127
5.2456398 -1.628018 1.4811158
5.194973 -1.6276338 1.4779172
5.1652555 -1.632993 1.4760406
5.1505303 -1.6425376 1.4751103
5.1358881 -1.6520278 1.4741855
5.1286035 -1.6636112 1.473725
5.1286144 -1.6773281 1.473725
5.1213512 -1.6888592 1.4732656
5.0852962 -1.6916231 1.4709892
5.06391 -1.6986804 1.4696386
